# 3D point list with one line of data per point:
#   POINT3D_ID, X, Y, Z, R, G, B, ERROR, TRACK[] as (IMAGE_ID, POINT2D_IDX)
# Number of points: 413, mean track length: 3.7097525340151583
23876 1.9214757793286614 0.7962967682790667 5.2199480666565039 209 138 101 0.4841255761910801 22 9391 23 9222 26 11193 27 8841
23877 -0.2766901651206421 1.8677695567951198 4.7447451500446434 202 188 177 2.0414518126523022 21 9316 23 9232 26 6177 27 8409
23878 1.8921303784808656 0.81703304806546073 5.2168670841000289 44 18 3 0.51913511437042903 22 9396 23 9235 26 11204
23879 -0.21958483482267044 1.8515427811411043 4.744019977984725 203 189 178 1.2512511725395257 21 9262 23 9246 20 7338 26 6182
23880 -0.35651906827420737 1.9383165748586959 4.6965379860421805 138 122 109 1.6067008016271664 22 9418 23 9265 20 7342 26 11165
23881 -0.28243822477022718 1.8922727025993313 4.7326169100653317 151 137 126 1.8444718633941122 21 8645 23 9269 26 11167
23882 0.12942296939988812 1.676522440588752 4.8523076028949061 166 150 137 1.1022494380615258 23 9272 26 6199 27 9630
23883 0.0088114327801538002 1.7498632387057467 4.8167246230584384 125 109 96 1.0085545942235639 22 9429 23 9286 26 11186
23884 -0.18281336773055648 1.8680052252931076 4.7305844939082897 202 188 177 1.7975712138003725 22 9433 23 9292 20 7353 26 11183
23885 0.37606597091213662 1.5930343109617546 4.8684654373225715 161 143 131 1.6346741923436034 23 9298 26 11196 20 7373
23886 -0.17715240299519858 1.8658590155621613 4.756087255531301 199 185 174 1.9119616946772602 21 7858 22 9444 23 9314 26 11191 27 8489
23887 -0.03145093262463735 1.7890132890700619 4.7981119931839871 125 109 96 1.180828899827348 22 9443 23 9315 26 7830
23888 0.23868209852363528 1.6467278356585082 4.8817774737833908 161 143 129 0.054449766193895396 22 9442 23 9320
23889 0.19245928661124373 1.6794395374630822 4.8556397604350412 115 101 90 0.46851111945151969 22 9445 23 9326 27 8603
23890 -0.19828346503054367 1.8846443183990176 4.7475428630428409 199 185 174 2.1328108642935755 21 7379 23 9327 26 11199 27 8488
23891 -0.30214493523301228 1.9445458410130938 4.7088203744748949 178 163 151 1.2275067101026373 21 9555 23 9329 26 11194
23892 -0.24243950737595646 1.9081333954291759 4.7349645688773458 205 191 180 1.8616062754927505 22 9449 23 9330 20 7365 26 11197 27 8473
23893 0.15542804287042844 1.6939308657194407 4.870798332726582 128 111 101 1.0473188147971337 21 8913 23 9334 26 11216
23894 -0.29198241882590159 1.9494263354719135 4.7125538192406369 132 120 108 1.4476747301259634 21 9564 26 11206
23895 -0.016872845153155475 1.8008657323075341 4.7954326225583781 172 154 142 1.5487351670111191 22 6931 23 9339 26 6227
23896 0.21693012723845037 1.672470019483282 4.8976776066994017 104 89 76 1.9560615057420192 22 9461 20 7389 26 11235
23897 -0.32735699470291013 1.9649435737966641 4.7116885827996597 169 153 140 1.9676309866541652 21 9571 23 9348 26 11210 27 8460
23898 -0.011879919280216721 1.8029180985161872 4.8086864825592484 89 73 60 1.0900777786916411 21 9541 23 9356 27 8562
23899 -0.36722019332245953 1.9950876334354464 4.6983706799571729 164 148 133 1.5079317832629247 21 9584 23 9360 26 11217
23900 0.39675864118250037 1.5992257372279259 4.9191785144975899 167 148 134 0.92648390204977571 21 8715 23 9366 20 7409 26 11244 27 8680
23901 2.0689024205919542 0.81925509590716161 5.2292012328303761 242 172 132 0.14471063195984799 22 9464 23 9380 26 11309
23902 -0.35689123417327218 2.0094555061697283 4.688291191734101 164 148 133 1.3102261662614909 21 9601 23 9384 20 7390 26 11230
23903 -0.21854043965163722 1.9413797384271918 4.7199497384406097 156 142 131 1.1848529288476095 21 9586 23 9391 26 11237
23904 -0.004534084524123177 1.8341789805818312 4.7930316717301631 87 73 60 1.2015626495460756 22 9490 23 9408 26 11251 27 8595
23905 0.37169119755685365 1.6417813056648387 4.9004971864715774 103 89 77 0.83400838748561001 22 9493 23 9412 27 8696
23906 0.26866883108825174 1.7092284844737604 4.8588161383994759 110 94 81 0.91905945446587101 21 9563 23 9426 27 8679
23907 -0.0024882356012352262 1.8635296875256062 4.7682269365789089 167 151 136 1.049578358400548 21 9602 23 9445 26 11278
23908 0.31026195689729219 1.6951138797772178 4.8724747972222353 98 82 69 0.86328923522503587 21 9565 23 9446 20 7433 26 11299
23909 0.42905104111153247 1.6482638948038026 4.8878251542353279 102 85 75 0.7891420409324944 22 10091 23 9453 26 11305
23910 0.035479939968837131 1.8544364871993513 4.7915846292901332 163 145 131 1.0186378574964605 21 9614 23 9470 27 8633
23911 0.29055143155674762 1.7320142280083979 4.8617770192437089 117 101 89 0.36964410458093439 22 9528 23 9481 27 8712
23912 1.8381856486043593 0.99552743868410365 5.1716364658965563 18 11 5 0.43849735559673242 22 9522 23 9488 27 8865
23913 -0.098899867689761098 1.9524956277127932 4.7227033647740608 192 178 167 1.0167478382530506 22 9535 23 9489 26 11313
23914 0.010739192437599659 1.8927265602084808 4.7706374393458164 101 85 71 1.2703603714524652 21 9640 23 9495 26 11323 27 8646
23915 -0.068968157284159101 1.9566924141328919 4.7019763186218988 140 124 115 0.66949235631108872 22 9541 23 9503 20 7452
23916 0.0011893707397949934 1.9021278016777929 4.7664272116502833 166 148 134 1.5909560792144437 21 9657 23 9504 26 6309 27 8650
23917 0.28469043286243984 1.7610936189676989 4.852860538276051 157 139 127 0.88328105914277411 22 9548 23 9515 26 7824 27 8729
23918 0.018099925299925768 1.9089662003102899 4.7619868275232502 98 82 68 0.80414368981737228 21 9670 23 9518 27 8665
23919 0.045739044767422875 1.9028875269398038 4.7614214546662339 129 113 100 1.2966790317980481 21 9678 23 9520 26 11342
23920 1.5886475851620678 1.1467658683282991 5.1125993320213441 172 155 139 0.12475637072851598 22 5232 23 9526
23921 -0.029900897913188989 1.9387241884164435 4.7551051858372846 112 98 85 1.3805156980189923 21 9686 23 9528 20 7465 26 11343 27 8660
23922 0.34725419448293832 1.7534306347894013 4.8570158647362796 119 103 90 0.5378027212350861 21 9650 23 9538 26 11361 27 8757
23923 0.21477329647964413 1.8207226004609312 4.8230041167110773 104 88 75 0.50023340455127829 21 9668 23 9542 27 8727
23924 2.1103511399771815 0.92835106146744983 5.2196937476459269 87 79 74 0.4068413885245919 21 8832 23 9568 26 6404
23925 0.15623915432296714 1.8906769139790416 4.7932347636721575 129 113 100 1.0550914390931669 21 9715 23 9582 26 11386
23927 1.442243542036272 1.2714755997849205 5.0959384112684356 81 65 49 0.029026188683427344 22 9588 23 9601
23929 2.0756823600423973 0.99480838018750417 5.1814930853592855 254 255 251 1.0980109304269889 22 5136 23 9612 27 6065
23930 2.1791652130893313 0.9362638204546635 5.2331497948209291 79 72 64 0.64390097870076957 21 9548 23 9617 26 11447
23931 0.32823885407343845 1.8646107744888192 4.8049720817679225 103 89 76 1.2126544301512194 21 9743 23 9624 26 11424 27 8796
23932 0.46420308100455993 1.8030303637581915 4.8349391270081146 123 108 97 0.92324782663139215 22 9606 23 9628 20 7524 26 11431
23933 0.44061259150099458 1.8286762963488441 4.8287484864810111 131 115 102 0.86880060929262914 22 9610 23 9640 27 8814
23934 0.21371597865873207 1.9608815268909767 4.7809103693478026 187 171 156 0.7656490499112657 21 4219 23 9649
23935 0.20113725794119539 2.0007626712599489 4.8510998777685819 142 129 113 1.2010866994921066 21 3022 23 9666 26 6435 27 8821
23936 2.031371974528676 1.1499245916923009 5.1397510393095622 53 27 13 0.20212421526738689 22 7146 23 9668 26 11472
23937 2.0010555039563771 1.1024958255080177 5.3133270209286945 192 125 98 2.5556491914533166 22 9632 23 9670 26 11476
23939 2.1564649734882684 1.2228736743981987 5.1402959005886055 255 250 236 0.55936215815237 22 9645 23 9688 26 6450
23940 2.212797172058607 1.206782032343384 5.1832055474732144 249 237 223 0.44841971002406389 22 9647 23 9690 26 11489
23941 2.1538657158675063 1.2697739896006053 5.1571543292118864 136 124 112 0.46666903255063152 23 9694 26 11493
23942 1.4149996685153055 1.7233065998346906 5.0070812372762115 144 131 115 0.18328987625057178 21 9764 23 9700
23944 0.51759614321075142 2.7289206484012256 4.6329427772501877 171 158 141 0.76353498436231415 22 5187 23 9713 27 8926
23946 0.32821541822961592 2.8423183428683356 5.3483631045318383 192 188 185 0.58225857394829128 22 9678 23 9743 20 5601 26 11529
23947 1.6919838836462961 2.3267113440638587 4.7965561311788836 181 168 152 1.7931640036480736 18 4264 23 9765 26 11570
23949 0.089627564961854658 3.0191478611851608 5.4676503967098764 3 15 37 2.0930028823206328 22 9730 23 9786 20 7600 26 11575
23950 -0.032583837258324297 3.095414798326424 5.3936135272434633 6 0 0 0.61601768152607439 22 9735 23 9792 26 11574
23952 -0.043470754274232713 3.1088850080809465 5.3462841787612909 9 1 0 2.0042923841649465 22 7139 23 9794 20 7603
23953 -0.090013014227980609 3.1331359848854352 5.3583817753420639 5 1 0 0.66736048491067379 22 9743 23 9797 26 11576
23960 -0.15926470004820045 3.1754281344520163 5.6499086694906504 135 120 117 1.5038378637959908 22 9762 23 9835 20 7631 26 11618
23961 -0.10755367819549605 3.1433534670703316 5.8157256894641298 29 11 7 0.38700417342911209 22 9772 26 11650
23962 0.0083590048510554724 3.1080660677954679 5.6981446723238678 138 120 116 0.73252210030298481 22 9776 23 9852 26 11657
23963 0.052789106330895591 3.0896972773875238 5.7082445644371695 146 127 126 0.79566977382752968 22 7158 23 9854 20 8284 26 11666
23965 -0.1458884522096302 3.1888182812444685 5.6987765473997349 147 129 125 1.3481299612162463 22 9785 23 9857 20 7655 26 11660
23966 -0.0086354440895448289 3.1287593244500438 5.7551242256100652 137 118 114 1.7628178232132212 22 9787 23 9863 20 6181 26 5456
23968 -0.11793309955204352 3.1878253965006631 5.7525079221202668 156 141 136 1.0347717452493315 22 9795 23 9872 20 7675 26 5458
23969 -0.010433754313974053 3.1430417631317424 5.7962173713998126 131 113 111 1.074994113712342 22 5275 23 9887 20 6193 26 5476
23970 -0.3450747993762987 3.3203207179819558 5.7461002079588717 127 45 57 1.9744188576556592 22 9816 23 9896 20 7693
23971 0.23932456726001233 3.030520938159778 5.8034236176813998 16 3 3 0.81000114487474739 22 9807 23 9897 26 7884
23973 -0.34178396005346817 3.3458353847366387 5.619456371554759 173 140 124 1.4906653737585747 22 9830 23 9910 20 7703 26 7877
23975 -0.61123246771463935 3.4284268026685498 6.1082855546211068 175 145 134 0.25309223283220905 22 9832 23 9918
23976 -0.291059759867003 3.3154589658250981 5.7514396186930554 173 142 135 0.32594704870146002 22 9839 23 9926
23977 -1.3060886639561724 3.7608347576465206 6.8569525168540002 32 16 3 2.0740401260056922 22 5323 23 9981
23978 -1.3244926125027219 3.7863035766402424 6.8677616910761659 34 16 2 0.79541511392376996 22 5334 23 9993
23979 -0.16777974849573524 3.3407533860249012 5.8073920006761011 163 123 111 0.56031966784980636 22 9894 23 10007 20 7764
23980 0.32961802788934469 3.0912308213808668 5.946016638797559 197 149 147 1.9270673961172293 22 9895 23 10013 20 4326 26 5551 27 9648
23981 0.29941672828849886 3.0961909162790429 6.1028436017519985 111 110 89 1.5028710235746083 22 9896 23 10018 20 7783 26 8023
23982 0.21383725789910249 3.194304807829865 5.7927831401701937 85 21 12 1.1592955959004658 22 5370 23 10043 26 8042
23983 0.26071032840880731 3.1594872257057598 6.0610463297206367 143 107 77 2.0583876379960548 22 9934 23 10058 20 6588 26 5599
23984 0.053609638802396276 3.2854972850446118 6.0564533762271466 174 128 107 1.9584893658002642 22 9968 23 10091 26 8080
23986 -0.57596011201419572 0.8090349950336313 4.8932032287696208 86 71 59 0.88050082304042721 21 7635 23 10317
23987 -0.34659439602523529 0.67786880295520369 5.0798867521380746 161 142 125 1.2124245618125096 22 8705 23 10319 26 10430
23988 -0.041267014027358002 1.0569975965884997 5.0343719481854663 145 126 109 0.044793743667831287 23 10336 26 10757
23990 0.33261325057013602 -10.242941263884683 7.0235173210921387 121 100 74 1.5490990082600298 21 5086 23 10483 20 4668
23995 1.1778923642450356 0.14537430562366344 2.8568380278542405 129 110 80 2.4453712403556467 20 6006 26 9074
23996 0.19165866691902633 1.7422356892455755 4.8657394096417157 60 54 50 1.441875909245538 18 347 21 320 23 273 25 292 22 361 20 397 26 273 27 440
23997 0.13778431124880045 -8.7586577472532294 10.729247417071381 86 51 18 1.4477370279908017 29 720 21 967 23 1051 22 944 20 689 26 1029
24002 0.56371341503853667 2.0154322276784535 4.8691071883789121 80 74 68 2.0731238056441561 25 715 23 515 21 472 22 460 20 488 26 471 27 417 18 480
24003 -0.52046916936361831 2.1299386172354153 4.7623393184532983 216 205 192 1.1484466501997299 18 71 23 106 25 108 26 98 24 140
24004 -0.70738762064720639 2.0530995284383491 4.7431159029207244 177 164 148 1.7205433511720338 21 113 23 108 26 102 20 119
24005 2.3004749082530753 -0.73824306081122704 5.2701190252283485 81 60 43 1.3844191559291914 21 6101 23 119
24009 1.3018198324611994 0.65878972095679089 4.2202484049984887 18 15 10 2.2689018341984091 22 443 23 502 20 469
24019 -0.33633582471243223 1.1974696642156319 4.9298148399230728 87 50 31 0.67655469111489386 21 2048 23 2352 26 2321 27 2425
24020 -3.7775904359106582 -0.86363344890126303 6.2104833822099117 161 137 111 1.913870023501804 21 3469 23 2508
24032 2.3113828200639674 -3.7874026975423813 8.9534793064746765 49 23 0 1.9803138614640869 21 3372 23 4486
24033 0.47130574896208338 1.4021892903395563 4.9779961496608509 180 160 149 1.324984167331501 22 4698 23 4632 20 4156 27 5971
24043 0.93939715218201991 1.0868924003640561 4.0988703356181304 90 72 52 0.51588761586068788 22 5733 23 5934
24045 1.9161838561944682 0.45849594347515599 2.8578833731931166 80 58 35 0.9186401298658502 22 6251 23 6573
24047 -6.3864790235630373 -7.612539947290573 4.731363905805301 177 162 133 3.0104952918610133 21 4482 23 6837
24048 0.25235590668865754 1.0799866064689303 5.0719965492250676 144 121 107 0.85253573969306606 22 5820 23 6900 26 6146 27 8227
24050 -4.4845682315621023 -0.91833952328832924 5.6285676365246315 82 62 38 1.6871038408065404 22 7973 23 7533
24051 -0.65113637448459716 0.51965246639891305 4.9943945782560561 199 187 175 0.98805158220792966 21 6047 23 8125
24052 -0.48534463623538049 0.65475795886194799 4.9908615757399488 66 44 31 0.14507919089311083 22 8685 23 8177
24054 -0.066755982004564313 0.79168467887013527 5.1304888195324931 149 126 108 0.67414704734963571 22 8829 23 8397 26 10566
24055 -0.10094126714496562 1.1873529471816939 4.9684361412229938 145 123 105 0.21952464571664704 22 9032 27 8129
24056 -0.6157938152480944 1.4336073387323096 4.880864696486757 174 160 134 1.8635104120522656 21 1485 23 8747
24057 2.1368607258853469 0.18096248858204692 5.4264501113232235 35 25 15 0.64720352059534181 18 6835 23 8782 26 10878 27 8637
24058 -0.32942552396573338 1.1513126680949139 5.9869490152862266 169 151 137 3.0061416817399955 22 9265 23 9074
24059 0.46534029201480925 1.4149434409754325 4.9982657943145972 177 155 147 0.037954224175101331 21 6784 23 9157
24060 0.20760018365030594 1.6065385756200681 4.9081061674604349 126 110 97 0.53710035351636054 25 7039 26 11169 27 8551
24061 0.34416605447480902 2.0563786787591449 3.8864770310465255 181 165 149 0.46474995218454451 22 9459 23 9239
24062 0.83711896847138545 1.3533700056312294 5.0726446819718793 157 142 125 0.90903891996960851 18 10506 23 9357
24066 0.70882551663706606 2.7395949159895845 6.0063797019674903 90 72 58 1.6202689559034784 21 9809 22 9768 26 11708
24067 -6.3275079088164956 -5.2628625501010005 5.8566761535003167 114 90 62 1.4250423609199152 22 6568 23 10595
24072 -0.13179436792055035 2.2100022990608554 4.7801386438025579 232 216 201 1.6682759703065351 18 55 23 55 26 50
24075 1.7107962977421394 0.58426167786672223 2.9873731716909462 32 39 5 2.8769526759329636 22 70 23 27 26 31
24076 1.4436020978672819 0.75894626940158061 3.8644361657806816 7 6 2 1.7164934335258768 22 81 20 76
24079 0.76827358306437266 0.79504596493728652 2.6159913204199623 68 79 19 2.8057527121341819 22 92 20 89
24080 0.5721082386027796 0.2081467901396552 2.3330494457905928 0 0 0 1.3837699263781094 22 168 23 196
24082 0.62830653536201797 1.0923522044731035 2.1654558412009259 21 12 3 0.52573201114771106 22 145 20 128
24085 0.6366226504024658 2.326216166554941 4.808457592254693 217 203 190 0.98508545751535126 22 150 23 147 20 155 26 147
24087 -0.31586395734569195 2.0953084521927257 4.7442189351716291 148 132 119 1.1370984908717374 19 203 21 215 20 224 24 349
24088 -0.0090437232323487791 1.9124893554389537 4.7122107975939009 165 149 136 1.2290452525833533 23 227 20 225 26 228
24089 0.7890791815306456 1.136755314467123 3.7784967108451046 75 71 36 0.22574435396461071 22 235 20 232
24090 1.3551226614360952 0.20942997503113062 4.1496199889606658 159 141 121 1.5916802547879341 23 156 20 240
24092 1.5419570137545573 0.33605241719793683 3.1151688048513382 32 39 8 1.8235287604179922 22 264 20 253
24093 0.10947672976156121 1.1279217661231735 5.0412244162096531 145 124 110 1.5175472388215139 22 366 23 278 20 262 26 283 27 326
24094 1.5163260142707922 0.73540371580393127 3.3541897783987626 11 12 0 1.8119615673068583 22 431 23 239 20 277
24095 1.7828084134032356 0.71173950047792811 3.2486011827402619 116 90 65 1.7089173635579513 23 475 20 281
24098 0.73949181841174194 0.99739488890210459 2.5057160397560336 15 18 0 1.1286366925420688 23 435 20 314
24104 1.396335996685901 0.34174237707092614 3.5217666416944113 115 89 66 1.4840131267688315 21 701 20 444
24106 0.52098781977631548 0.93899452101804126 3.6983546171636297 36 29 13 1.1639977592016435 22 376 20 459
24111 0.49336409769892997 2.9114636134578831 5.4530700707962021 16 14 17 1.9693554558239224 22 218 26 352
24113 0.4535575485779974 0.27483714382329327 2.2439066799551943 50 47 6 0.064252512001667261 22 1230 20 508
24115 1.3940824589426934 0.3632020305734831 3.562022221335349 11 11 0 0.4993530276660702 22 711 20 514
24117 1.853515094437326 0.26578645584329641 2.532860108454968 20 17 2 0.61003908545322161 23 625 20 649
24119 1.2731856300646069 -0.012345531755562442 2.8320884931690982 170 154 138 2.8198372956981341 22 1003 26 559
24124 1.6129997171026533 0.68501177309597749 5.1008132618639044 116 96 79 1.2747880794644535 23 743 20 747 26 696
24130 1.7780740632586998 0.72023271215992646 3.2104290408470755 130 102 78 0.97135749059057008 21 867 20 793
24131 0.79698120416804075 0.65675240994272899 3.5115928028649868 120 96 70 2.3121571419806961 20 796 26 754
24132 1.7897214648072128 0.69860140653533043 3.0988346216197722 123 100 68 1.2440599820085811 22 1437 20 802
24133 0.68190567544553804 0.4055629529105344 3.4648196006780796 143 116 95 0.89588129308604758 22 906 20 812
24134 1.4337593538973634 0.47366574267751388 3.181913018307748 15 13 1 2.6319011736835227 22 720 20 818 26 407
24139 -0.30834784216552863 3.0675368451392582 5.0179278188995404 132 119 110 0.62656244492322188 22 806 26 900
24140 1.19628838002014 1.164540449004577 4.1497924472792977 142 121 100 0.983947778921893 23 931 20 923 26 705
24141 0.82090723386682696 1.1391498873414581 3.6251287453329764 187 175 159 2.0644066450673577 22 1495 23 758 20 941
24143 0.94335176791073572 1.1050735505412586 3.3961798741944724 26 24 4 1.7793009687197501 23 974 20 960 26 730
24144 0.77722275863169421 -4.0497209054751577 9.3190613561061522 102 74 52 0.66719962402481936 21 1394 20 974 27 871
24145 1.9931674939208806 0.64589416539632549 3.3740255596828823 53 50 21 1.4004050355974076 22 864 23 1508 20 977
24146 0.88814713703921677 0.82482369790253429 3.3846794098643835 130 105 83 1.6616582917985407 23 2520 20 990 26 2060
24147 0.95158768618271261 0.60473502030421755 3.5421534211731105 125 103 80 1.1243997590600754 22 883 23 2534 20 994
24148 1.9023341278985519 0.41599567906387108 3.450186588540519 119 91 67 0.51745075741868529 23 1484 20 996
24149 0.74127814681272741 0.915926159042733 3.1546491043683975 64 61 26 0.20590548448335222 23 802 26 642
24150 0.58223285215093645 0.75051511667784077 3.2953823094754142 20 14 0 0.49335864077490299 23 1472 20 1016
24151 1.1374813458436379 0.4664143223656565 3.3424086360116338 19 20 2 1.4400580295345795 23 819 20 1024
24152 1.2777460228447743 0.22322437045131197 3.2753738869939957 0 0 0 2.2086196059904819 22 1385 23 1414
24154 0.74908595013941859 0.33692129804254334 3.2322487251797138 136 101 69 2.3086302407861097 20 1060 26 1076
24155 0.53182258602358712 0.28422078712034693 3.097964751855772 15 8 0 0.51243078511288676 23 691 20 1088
24156 0.93786029460221709 1.2891625620238212 2.2189943042016309 153 118 64 2.2195499512751957 20 1114 26 565
24157 0.94443308079659349 1.1759456493007094 2.2847951865809719 37 36 6 0.95963756085119511 20 1115 26 566
24159 1.2167905272125834 -0.29411291601501305 2.9591674581791705 166 150 135 0.096903732933926484 20 1144 26 362
24161 0.65072861366344792 1.1170339335769799 2.0841801665177115 33 15 3 2.3674276747067364 23 1213 20 1158
24162 1.677423830201856 -0.029063244445398213 2.3200581305056129 80 92 26 1.4431187486597259 22 1104 20 1227
24168 1.176651527749385 -0.18466565873216653 3.5085368591779602 51 26 6 1.6713888719898431 22 2065 23 1399 20 1290
24170 0.42935871236427425 0.6083948507623147 3.1012477783096917 17 8 1 0.60968413453525505 20 1306 26 615
24171 -0.26526769193131444 -7.2470786406752268 10.440406074705333 124 94 68 1.8562187704663267 23 2130 25 1510 20 1343 26 2050
24172 1.4851032728589906 -0.1346489284098511 3.8480609048354752 43 19 0 2.1014274013232899 23 1454 20 1353 26 1285
24173 1.2014602626428583 0.56954127659132237 3.2860048443160284 91 90 69 0.036794941290520265 20 1354 26 1275
24174 2.0010857970602172 0.79645455645781038 3.0140970466044048 130 102 75 2.12052410943501 22 2345 20 1374
24176 1.8445205159067455 0.57579295855029233 3.4286554046266144 0 0 0 1.4301437489648201 22 1453 23 2903
24177 0.80983702898250232 0.72772865673409382 3.5860376485343193 109 84 64 1.256074907172041 20 1398 26 2105
24178 0.91406548354164152 1.04883306983567 3.369452504820003 26 17 2 1.619218193835593 23 1528 20 1414 26 1366
24179 -1.8391734373411379 0.41865361222317482 5.0471370664588822 0 0 0 0.86959093338209359 21 2352 22 4500
24180 1.18904312153821 0.013798352982351316 4.4896219471375778 22 8 0 0.54040327816937872 22 2290 23 1535 20 1418
24181 1.2938134304198112 0.010374083620229292 4.4574509279433352 167 148 133 1.5788614804544221 21 2351 20 1419 26 6810
24182 2.0574287721191311 -4.5930737158051107 9.6608385607691627 79 53 30 1.5409185663490172 21 1395 22 1460 23 1550 20 1422
24186 1.6727598425826529 0.33033715116861623 4.177504742329325 165 145 121 1.8641470453296087 22 3018 20 1438 26 446
24187 1.0254724264190467 1.0831938951700841 3.5816313764914818 23 16 0 2.2148110856092482 19 2115 23 1561 20 1446
24189 1.5621237118338946 1.0103851263070449 3.5262995252821279 12 9 2 0.24856162939145063 21 2076 20 1455
24190 1.0840405711752097 1.0245253909690315 3.7803947519831516 63 56 40 0.99394106257087245 18 2686 21 1472 20 1457
24191 -0.45355583746095124 0.82336986072742913 4.9756195948006763 80 64 51 0.061737898385776813 21 2074 20 1465
24192 1.4994666488545831 0.90764548165335623 3.8767888070731296 27 22 18 2.353993237552249 20 1467 26 946
24193 1.1409317354240562 1.1930198880770648 4.1569461409823392 91 75 59 1.8879820120756425 23 1590 20 1484 27 5862
24195 1.6078865047321085 1.0465836895704423 4.2047756632991167 116 102 90 1.6824008969065625 21 2035 23 2783 20 1492
24196 0.10518100160907856 1.3898751536821894 4.9533758017269953 84 91 81 0.86379775225312205 23 1600 20 1500 26 1453 27 2401
24197 1.5998619294758452 0.96888444129424289 4.8177049749427052 119 101 87 1.8812533568644139 23 920 20 1507 26 914
24198 0.077719447842436507 1.6811831537553945 4.8373334675773823 156 142 129 1.4949608635313805 23 1608 20 1512 26 1467
24200 -0.29176386950411548 3.1661414905327945 5.1551967534911558 118 97 70 0.29046681378087646 22 1552 20 1529
24204 1.8148949875760554 2.4176732163313717 6.3425425794028936 93 74 57 2.1021120114974092 23 1658 18 2033 26 926
24208 1.107116336673178 -0.094769048758234276 2.9291054552855855 27 18 3 0.67471088653783573 20 1632 26 1659
24210 0.62804536114600851 1.0367990192935626 1.8837456011501241 47 50 7 1.8935609415375079 22 1831 20 1681
24211 1.3917220587380856 -0.09739232598024597 2.4531931435301186 0 0 0 0.82643288159869732 22 1826 23 3502
24213 1.6068707969529663 -0.00151794743719062 2.4781590348142903 0 0 0 0.43986317734289226 22 1074 23 1254
24215 0.91592953606872529 -0.39651999465314525 2.9773573060893557 179 155 127 0.76039572145514711 20 1748 26 1646
24216 1.7301554161577002 0.24667950712304956 2.5934387560002143 57 54 37 1.6142210180526801 22 1307 20 1750
24218 0.99329599180244033 -0.40572388341623605 3.2558344764430784 155 137 119 1.7757859187010954 22 1500 23 2004 20 1780
24220 0.22264460300044325 -0.023831999037491863 2.2946045052858257 47 50 5 2.2378873647151498 22 3360 23 1733 20 1790
24221 1.7156671350586694 0.46831420779135602 2.1976954746034965 27 27 2 1.9656520274959632 23 3526 20 1806
24225 0.42944725188683502 0.4483557419869611 2.622118490255116 127 87 51 1.1637616041177248 20 1910 26 1656
24227 1.066984387162855 0.59816104470563602 2.5989374091316804 27 19 0 2.73571624215396 20 1935 26 2103
24228 1.1896810724943994 -0.027665119670131515 3.0601249074724302 63 64 33 1.0451460211767336 22 2011 23 2020 20 1951
24229 0.38158896983780766 -9.9451581521488208 11.139458608552937 122 82 46 1.9025173573024254 25 1468 26 1971 27 1309
24230 0.95764022582512431 -0.039292288466128644 3.4467077439404394 20 10 0 1.0482767111483144 21 2391 20 2016
24231 1.5761105166454472 0.35126061883110826 3.0631500985094493 125 89 53 2.1083179668965801 22 2073 23 2100 20 2023
24232 0.82033509284815875 0.45571891178255269 3.217890380295779 32 25 9 2.4335443597519215 23 1630 20 2041 26 1242
24233 1.2189407424109073 0.35303640285031479 3.2372120779436271 144 105 62 1.3505186082997731 22 2445 20 2045
24234 0.66375477516332548 0.32632979550381946 3.3721261140335574 50 45 23 0.96766282231023126 20 2047 26 1252
24235 0.98850538032844737 -0.033350029208148883 3.6643430343214023 44 17 0 1.5810819586264726 22 2442 20 2054
24236 0.86376063188081476 -7.8284709016889487 10.53174478382051 0 0 0 0.72088119534763662 21 1946 23 1452
24237 -3.3828520196377614 -1.2099685175075658 5.8166887791190121 71 63 51 0.51833634813290352 20 2080 26 4497
24239 -0.68292522415513457 -5.9453698300558147 9.8669652996829225 137 107 83 2.4169498761686787 23 2567 28 1774 20 2103
24240 1.0853420802791507 0.63934117560868264 3.3673931242113415 53 67 19 0.70743751403310517 22 2733 23 1480 20 2132
24241 0.24821985385139905 -5.8746212173237176 9.8607007101065225 143 111 86 2.0351543353703776 25 1382 20 2137 26 3218
24242 1.1890131519152178 0.7125057762347472 3.3242766497587559 61 77 30 0.63088269027916311 20 2148 26 1302
24251 -0.047065492177315135 2.9055782888989685 4.7063604202771216 166 151 132 0.80878165226906995 22 3634 26 11497
24252 2.270178885807947 0.59896670975450816 5.2701757058739904 233 143 83 0.32334834629504472 25 5217 20 2340
24253 0.16800876708572091 1.593133199708054 4.9243963828426613 165 150 136 1.1247553401740258 18 2053 20 2342 27 3963
24254 0.66280787607657565 1.1894216172790175 3.1644579498321819 71 69 31 0.70145789264145475 20 2347 26 1335
24255 1.2752505546459811 1.2361093969585495 4.4700814043310668 85 71 58 1.6814829745360067 22 3591 23 4601 20 2359 26 2926
24258 1.6415690190550873 0.96489246064772971 4.1178591351760163 115 94 78 2.0870520583769787 18 3640 20 2386 27 3964
24260 0.60132961387188055 0.96450255974098009 4.586393951570007 0 0 0 1.8772545522993331 22 5752 23 3545
24265 0.83063573099807064 1.2202386103352587 3.7564651380855434 148 125 109 1.397651757270749 23 4525 20 2420 26 4875
24275 0.57280749363942973 0.51933756545444887 4.2914160371956207 212 193 178 1.4899762747040777 19 9455 22 3566 20 2477
24276 0.82513548298325601 0.68652468311004045 3.7427517869673483 18 17 2 0.88344749316160742 23 2479 20 2519 26 1837
24286 1.2659054764522388 0.31332748216286194 4.0822961682698313 23 15 2 1.4297580288212997 20 2682 26 2438
24288 1.1442746076907291 0.068102228740699364 4.2834574522436242 135 115 91 0.3096055743400945 23 2836 26 3161
24289 1.3241577309618211 0.66330395532980146 3.5234563820783662 158 137 120 1.0995517575667946 22 4958 20 2725
24291 1.2010794691877265 0.69478524093939975 3.4637063388580942 96 98 61 1.3090390289617166 22 4439 23 2898 20 2752
24292 -3.7851633610635069 -0.9127957680429607 6.318162194483893 139 117 94 1.7371171095898292 22 4327 23 2872 20 2808 26 3163
24294 -3.8325481796280729 -0.76424382753673659 6.0455140888407346 113 89 65 1.4203383675751138 21 3796 20 2839
24295 1.8955215241363605 0.45997197619354308 3.3190981565236815 142 111 84 0.54338876842635186 23 2046 20 2848
24296 1.2408859379448445 0.88419533720337751 3.054453093699161 0 0 0 1.2015969629443823 22 891 23 2088
24297 1.4516350656891832 0.51199348851506865 3.3348160327647998 125 99 73 1.8011203482991409 22 2761 23 6359 20 2876
24298 1.2489399743598306 1.1622771878231826 2.717628073143417 31 13 0 2.4600353126801249 22 2372 20 2910
24299 -4.3046307586564669 -0.86777608105304049 5.8601273772473945 202 178 150 1.9355757230093193 22 2828 23 2970 26 3276
24300 0.8060321600458813 0.13614640171658574 3.5729859533505666 34 17 1 1.2432017316592388 22 2864 20 2968
24301 0.95712306680293457 0.350969556630154 3.3546279960901551 153 121 84 1.027996314247273 22 6144 20 2970
24303 1.569790046700414 0.11656179315763986 3.339727735589523 94 73 46 0.61258567713868828 22 2909 23 3987 20 3000
24307 1.5502334973770904 0.02618376639877603 3.277243938007893 68 49 19 2.2442464165115141 23 3187 20 3031 26 4268
24309 1.1987336149984125 0.12751078104959787 2.8861933100891126 118 102 77 0.046898164690174327 20 3111 26 4166
24310 2.0922579652555089 0.45342299317788531 2.5153223809203777 90 91 21 0.43673859271953996 20 3136 27 4630
24311 0.99070938827381816 -0.40108924011322666 2.9873015627864543 66 51 22 1.8341709875654972 20 3145 26 2531
24313 -0.36328705961159019 0.25421914131818663 2.5695238747326221 32 33 5 2.3727287007968929 19 578 20 3185
24314 0.77730723177468874 -0.55183279482050096 2.9472841177111633 39 33 7 1.1640500437991244 23 1274 20 3188
24317 2.0205235658337122 0.21071939769321685 5.4139537327559202 66 53 44 1.2085999199894895 18 2682 21 3193 26 2313 27 2394
24318 0.91177376625818474 1.3829040242359947 4.8946588937124407 103 81 58 0.80450761571754481 19 9656 20 3450
24319 -0.21318793166593383 1.9962751728732651 4.6874010925061471 0 0 0 0.44886694224598211 22 3616 23 3621
24320 -0.36547041528097401 2.1297323738064935 4.7522099264817044 0 0 0 1.720389034899102 22 4729 25 4249 23 3627 26 4995 27 3972
24328 1.6422547037493596 2.3502461904251306 4.7248885871794331 140 125 106 0.14274520313952621 23 9756 26 6588
24337 -0.51124963921702749 -5.1242617405642772 9.4906923827394127 110 82 58 1.6574226713010123 21 6588 22 6033 20 3796
24338 1.2399171856084084 0.7642188019312588 3.3960882379616537 0 0 0 0.33913393435265471 22 8370 23 4245
24341 1.2986985682083407 0.97798817798254678 3.6352636198238093 88 82 58 0.36375576263050036 22 8662 26 6711
24342 -0.62779821006860015 0.76010609802175222 4.9246113929011068 122 94 72 1.9048438673389536 22 4612 23 8182 20 4064 26 4878
24344 0.96097881313371458 1.1447379885692779 3.9089210403202377 99 78 59 0.3097180023651987 20 4082 26 10408
24345 -0.54306978831115593 1.338162377356118 4.8148988123300001 67 48 31 1.636942881332961 21 3179 20 4102 26 6501 27 3907 23 4574 24 3939
24346 1.6703397012107026 0.95012318422842779 4.1662307619641865 135 115 98 1.0129606728675125 18 4144 20 4106 27 5926
24347 -0.50662446450521748 1.5501133375968219 4.7872598428856481 61 44 31 1.507340507857398 21 4161 20 4121 27 3929
24348 2.1732674202039819 0.17283919944649678 5.3822945905783284 60 47 38 2.2778634268867832 18 4097 20 4127
24349 2.0267796583897586 0.27956169670652781 5.3716118308209984 139 91 65 0.13480594989203643 19 3736 20 4132
24350 2.2923741385207599 0.24383911392530386 5.3614512637572842 87 78 71 2.50494717870298 18 4112 20 4136
24351 2.0528658968591698 0.42323962957921496 5.2449847976161301 149 101 89 1.6173148981841385 18 4125 20 4138
24380 0.47323499467536506 0.63025747610725147 2.7091655166707946 33 21 0 1.7698561097504069 18 6395 20 4820
24383 0.92920575730519683 1.238084473492798 2.3558406347821883 46 42 5 1.6716003371122143 20 4853 26 4189
24385 0.40450307983863515 0.57434318721395805 3.206308151968436 18 12 1 1.3226110193706087 22 2444 20 4912 26 1936
24386 1.0201706622486009 0.77165199905154802 3.012729748233169 46 35 17 0.39917091840576885 23 4016 20 4952
24387 -4.4075056000072914 -1.0765172024569554 5.8676143958437361 82 61 40 0.64907836863301149 22 4188 26 3311
24388 1.3553929778074294 0.1945511028385114 3.4970768777202155 29 12 0 0.50262840865838965 21 6859 20 4971
24389 -0.67089727863258453 -6.7620473747559222 10.091344650883029 131 101 75 2.1654293204226729 25 7151 20 4974 27 4299
24390 0.10951717454592744 -6.9401575559007194 10.209668293758007 132 102 77 1.2772599965523062 25 6194 20 4988
24391 -0.54248837634589175 -6.3089071190310495 9.8521270905945038 120 90 66 0.24581641273461324 25 6215 27 4323
24393 1.6374270211548885 0.89384829799282428 5.0261129132093458 107 86 69 1.5457859989925575 23 7011 20 5051 26 4951
24395 -0.45636952064570524 0.88759731425659816 4.9628299203459836 64 41 27 1.1082784838051032 21 5979 20 5076 26 4889
24396 1.2066829012954594 0.83552588238892556 4.2648693322397042 40 35 31 1.3890765038685988 23 5919 20 5102 26 10429
24397 1.7195704990389595 0.70174518276038178 4.4756370672613537 135 112 94 0.68304149087808774 23 4556 20 5134
24398 -0.082177566781772501 1.142907955545408 5.0190106678789848 161 140 123 0.31844550885927525 23 8720 20 5151 27 8125
24399 1.5759922168531819 1.043423784777745 4.1293268872782116 135 112 94 0.91766523800388367 18 4165 20 5152 27 8586
24400 -0.21506478745308105 1.3523391587802007 4.9185913785851731 168 151 141 0.8772499262647494 21 7212 20 5174 26 10876 27 8165
24401 -0.3841537300667926 1.5608868300931247 4.7558362811642025 64 50 39 1.2831906807719153 23 6929 20 5183 26 5723
24402 2.1651945895755524 0.28139751553223652 5.3968955253284783 67 47 38 0.48310966045701537 25 6725 26 10941
24403 -2.0871250929686496 0.96127776804662357 7.3523702515706377 159 146 137 1.0063787983168857 18 10436 20 5218
24404 -0.27027552847392666 1.6189593846000161 4.8473116895918045 74 59 48 1.2655257046969768 21 5849 20 5224 26 10981
24407 1.5804597237150257 0.99094362991436635 4.8359311008581649 88 72 57 1.3880753679994722 23 4613 20 5262 26 4943
24408 -0.20949955934295239 1.7560518099006608 4.8045401727209498 169 153 140 1.6574916460427542 21 6994 20 5264 26 11094 27 8371
24410 -0.17904582652223194 1.7568704273510678 4.798168652023457 172 155 141 1.8350999566921466 21 5812 20 5272 26 6150 23 9158
24411 -0.3657567527607401 1.8560174176108477 4.7571614884505653 176 162 151 1.5303007956007786 21 6951 20 5274 27 8348
24412 -0.21933780685542473 1.8123903747669232 4.7819556788104691 197 183 172 1.1187157881011529 21 5798 20 5292 27 5861
24413 -0.29262528698280321 1.8693268823113331 4.7299678809463481 189 175 164 1.0777850762617873 21 5796 23 5141 20 5294 26 6169
24414 -0.33307871414361484 1.9256661402486897 4.6691470360442313 138 122 109 1.4110945442562943 22 6901 20 5296 26 6172 27 8396
24415 0.14588158091276793 1.7010845632341987 4.8288989196871563 175 157 147 1.8688089655745332 22 6912 23 5184 20 5315 26 6210 27 8575
24416 0.022920782768410704 1.7858655578415483 4.8148176712386972 162 144 130 0.54765594795377626 23 9352 27 8571
24417 -0.2466312131749708 1.9871884987722803 4.69833610354139 136 122 111 1.7426497056569532 22 7067 20 5334 26 11266 23 9436
24418 1.6891226509040227 0.8805926893643139 4.161407237194215 121 102 85 1.999257003024963 21 7426 20 5356
24420 -0.33453991574538045 2.0754877114574066 4.7298844266539959 89 71 57 0.73799606558369424 22 7045 23 4666 26 6331
24422 -0.31618236087622953 2.0719826319017156 4.7724713698474162 146 130 117 0.031674168343182638 22 6058 26 11368
24423 0.11139861212057321 1.9086395945109895 4.7635666327373549 159 141 127 1.3661744049575222 22 7060 23 5350 20 5385 26 6360
24424 -0.092871648419818556 2.025984456231007 4.732034493687661 181 167 154 0.1044913446499806 21 4216 20 5389
24425 0.24164180932890017 1.8806808647369071 4.8004594004540762 159 142 129 1.4928638000095689 23 9606 20 5401 26 6397
24426 0.44391296748062142 1.8425080835555236 4.8013368081110395 171 155 142 1.2079899500745155 23 5410 20 5407 27 8816
24428 2.1128280511237141 1.2266670926202521 5.0223469404287364 164 152 140 0.82419002634540139 18 7041 20 5427
24429 2.1721626773642959 1.2992587840967138 5.1641884556996391 171 157 144 1.2100169486634216 18 7057 19 9654 27 8918
24430 1.6607038742857598 0.44110136829142726 3.9644199347181712 43 42 11 1.5892503484641973 23 5872 20 5464
24431 0.79982604829660586 -3.9135990883652676 9.2932536461965292 150 120 94 0.67226128756208547 21 6311 20 5493 27 6423
24432 0.93499617351057041 1.1409399152657196 3.3491341113439477 44 37 18 1.1630679871088825 23 4395 20 5495 26 4679
24434 1.7851948081150819 0.92281426066953487 3.084866702321857 71 51 21 0.82078343429730038 22 6246 20 5593
24436 0.62740848465107701 -5.5051668800744675 9.8094742431845496 78 51 30 1.162382658580932 25 3610 20 5654 26 10078 24 3678
24437 -0.39138312221743415 -5.0247301817057828 9.5181711890646277 94 68 45 1.8584128054569409 21 6554 20 5672 27 6692
24440 -0.14581167767785971 0.65288763050524845 3.7122063980335285 136 115 94 1.9034158140214017 19 10061 20 5704
24443 0.69974297208091907 0.895121474872555 3.1999114947271932 99 93 62 1.0256782538239497 23 6295 20 5736 26 9709
24444 -0.53127563970923664 -6.2176837509725837 9.9135408285009348 135 105 79 2.1551709069060805 25 7253 20 5791 27 6803
24446 -4.5631702306136397 -1.4489245283351027 5.7239645930620604 158 137 117 2.4868332245584841 22 7855 23 4924 26 7217
24448 -0.26945153991960658 0.91556667105628775 2.7942609642128557 74 74 12 2.6977961768407361 23 2089 20 5943
24449 1.1630653008203975 0.12867080760942592 3.1619858790532627 77 54 20 2.2624963222704197 20 5947 26 4251
24452 0.93364641416413574 1.0781807899440987 2.3281835788827148 109 71 39 1.5764641675874751 18 6563 20 5991
24454 0.81628812060966149 1.2028378483874003 2.2331567482533639 91 65 28 0.9937997800123185 20 6001 26 1757
24465 -5.1001157778864181 0.52722733201734828 7.6336092563124422 0 0 0 0.87454915174994974 21 7644 22 5689
24467 -1.5592477081242191 1.3106186745023247 4.8535770211883884 65 45 21 2.1115907743926363 22 4630 20 6432 26 10457
24469 -1.4918961200231766 1.1748058228519396 4.7780226598984381 62 41 23 1.4578130864986054 22 4616 20 6513
24470 1.6494222869926736 0.96131135493457354 4.1876127829225558 0 0 0 0.4348566021653717 18 6106 23 8557
24471 0.46849348053048273 1.2558948129956076 5.0590639909416808 149 128 109 1.9870692680442024 21 7142 20 6548 26 6077 27 8431
24472 0.99365063615724147 1.2321328039515906 2.2575540302135422 88 86 48 0.6622986819835075 23 3837 26 4133
24476 1.2393119918752178 -4.0741110831847349 9.3465945905951635 141 113 91 0.78996030700313646 21 8048 20 6682 27 7501
24478 2.2842589219057117 -1.055025347179513 5.7412341087264442 95 74 53 0.12107669523381526 21 2108 20 6761
24479 1.3226490434539151 0.93459015876231022 3.6638096178646937 36 35 6 2.1802315552996405 23 8090 20 6764 26 10234
24480 1.7037823935175977 0.27358828926082107 4.4224897749593701 133 111 88 2.2856189889517777 23 8118 20 6780 26 10345
24481 -0.60758769899697995 0.72248150203069372 4.910702572494599 145 123 108 1.0064737674603625 23 8162 20 6784 26 10390
24482 -0.17683251782729159 0.82062264339977886 5.0726817091697392 102 81 64 0.87183725097051035 22 8806 23 8345 20 6881
24483 0.0071414985811798426 0.7444808950460724 5.0982204058433975 136 115 98 1.0665254064580945 23 8346 20 6886 26 10529
24484 -0.10633374462129594 0.79300947833336122 5.108598692585157 136 113 96 1.4583513130042831 23 8362 20 6897 26 10548
24485 1.2312224498558941 0.9387206267753041 4.1866910384848426 47 40 34 0.76387786890946463 23 8317 20 6916 26 10456
24486 -0.20544245574398157 1.0248899676386711 4.9385121152667386 74 55 38 0.94266297940827359 21 7466 23 8469 26 10609
24487 0.22922665938654976 0.76335033300885147 5.0793172476292643 158 136 122 1.2970930344471359 23 8438 20 6943 26 10596
24488 -0.0028508641556560387 0.84669575692724974 5.1427277171157755 99 80 65 1.4528642976891131 23 8504 20 6962 26 10657
24490 0.2074054490846417 0.85336666313782383 5.1200213945561348 151 128 112 1.4274627344498454 21 7436 20 6997 26 10717
24491 0.030181497484342849 0.94497489440095506 5.0820182682415647 147 125 107 0.79603336971801664 23 8574 20 6999 26 10720
24492 0.040529885993806039 0.97852842981625676 5.0665938798864891 151 128 110 0.84491786734512297 23 8610 20 7013 26 10736
24493 0.08822558668172012 0.96013366603096373 5.0730318189313959 160 137 119 0.29829559522551696 20 7015 26 10737
24494 1.3535535424822791 1.628465061877695 3.2483320562886382 151 128 112 2.3036167397361833 23 8471 20 7034 27 1595
24495 -0.23912867796083387 1.2039510236384252 4.9576306364314497 77 60 43 1.3074023570756856 23 8677 20 7040 26 10774
24496 1.6654798925259724 0.54277556517545766 4.8600138493850835 195 181 162 1.2544378791458088 23 8587 20 7048 26 6504
24497 -0.27578163923908472 1.2949078724113778 4.9162208158498002 80 64 51 1.1438548063002114 23 8742 20 7069 26 10811
24500 1.5796700051257413 0.43741162770637648 5.1756235120336003 133 105 83 1.3153083766152087 23 4579 20 7086
24501 -1.4056803875765 1.846487164984411 4.7644461365535502 72 50 29 1.4261038934549817 21 4163 20 7089 24 4356
24502 -0.24311140589238606 1.362553391986153 4.8534703320895956 186 172 163 0.90665342260543014 23 8794 20 7106
24503 -1.3912420895311739 1.8653015533416459 4.7545684629586962 62 41 19 1.8699590015363008 21 7181 24 6355
24504 0.11779089811472705 1.1579066641052076 5.0200498017791464 114 95 80 2.0546135234746572 21 7250 20 7136
24505 0.015882020979481656 1.2538156074710183 4.9272638290104194 140 121 104 2.0957748622462922 23 8827 20 7140 26 6142
24506 0.17148325732377812 1.2029662916606889 5.023220898993034 100 81 66 1.6445632108002659 23 8906 20 7181 26 10919 27 8251
24507 1.8568093144582336 0.41259719159980857 5.2954895181858044 238 154 98 2.0291123955183843 22 5939 23 8859 26 10912
24508 0.25940752737311423 1.1609090773661053 5.0720778448843724 151 128 112 0.58188444504903758 21 7195 20 7194 26 10931
24509 0.3213278869251352 1.1808308674456605 5.0320931641229629 82 63 46 1.435540533900145 23 8932 20 7202 27 8284
24510 0.056039898999003093 1.3093743186272337 5.0038128680852809 81 83 72 0.040316358999429536 20 7204 27 8259
24511 0.11212654509872812 1.4679180867580259 4.9091803152250888 46 38 28 1.0932833814708578 23 4609 20 7240 26 11000
24514 2.0110618800041027 0.67603294431708327 5.1961848144172418 67 57 47 2.3577573618059025 18 10417 20 7317 27 8828
24516 0.078606311219862793 1.6638544888356046 4.8711401265507064 111 94 84 1.2129128791677544 21 6961 20 7331 26 11155 27 8508
24517 -0.32543694428122566 1.9055731521115862 4.7219699504532517 115 101 89 0.99516409746513756 21 8648 23 9249 20 7332
24521 -0.32872256960328367 1.9767508325964798 4.6833112103066474 170 154 141 1.8817954447099432 22 9457 20 7372 26 11205
24532 0.25082056322569329 1.8130516392824019 4.8241702376831528 169 151 139 0.67135398937225288 21 9676 20 7480 26 11364 27 8740
24550 -1.3542723999852513 3.8110475138023472 6.9196413691197369 111 88 70 1.2857966571817017 22 9889 23 5596 26 7978
24552 -0.26542739009738708 3.4341523824466926 5.9295114150709667 152 126 106 0.93970204925931633 22 9955 23 10061 20 7806
24562 0.12281678446033563 -0.15816268375825002 2.3533945315029681 0 0 0 1.4442574805115838 22 7304 23 3513
24565 -0.51153901972780436 -0.020212821670084875 3.1580475102204915 69 52 9 1.1211479377203617 18 8604 20 8539
24566 0.90265398899693972 1.1831559733738384 2.3024870157460384 29 28 2 0.40923554245127858 22 7756 26 4142
24569 0.8699951935115896 1.2122940109379652 2.4242860181286709 59 50 9 1.6607543781063587 22 7851 23 7259 20 8598
24573 1.3445492811590407 1.1290595480988057 2.6305058705098658 23 20 3 0.18530455579034316 22 8073 20 8727
24574 -4.1897670963814315 -0.80522125273066414 5.8400587690189596 155 130 100 1.6618723821106567 22 6081 23 7641 26 7741
24576 0.92000246633806071 1.0756472337321801 2.9408101047619613 0 0 0 0.274536268494597 18 5943 23 7534
24579 0.90895423813492116 0.96960099413297562 3.8813196253450082 48 42 27 0.32570652883781454 23 8130 26 3929
24580 1.0123002488822852 1.1072267973316348 3.6290110924855314 25 21 8 1.1991573419680008 17 4288 19 3012 20 1450 18 2095 23 1564
24586 1.587968513923858 0.1686944515091425 4.7396776383883452 19 14 8 1.9066316251397806 23 117 20 75
24587 0.7655070269629457 1.2470337285583308 3.0445989010405494 59 55 17 2.0357769145287259 23 122 20 81
24588 1.1462155859363992 0.72647647038739471 3.4009171066245272 11 14 5 1.1801337565367964 22 243 20 139
24589 0.59233933925205884 0.95958866358838735 4.2590040844718882 171 149 135 0.42752580564808096 23 115 20 231
24591 0.62785074486667258 1.0780690690187151 2.1289386378422419 0 0 0 2.3846957713491532 22 1015 23 631
24592 1.2757209194110872 0.065131819803548666 2.8123267503045812 28 16 4 1.9169308756934091 23 1166 20 666
24593 -1.4321783360132365 1.743885191276638 4.7790168563550326 80 58 37 0.53980187132418012 26 6321 21 4152
24594 0.98915306128921476 1.1130379859474262 3.5827756887170321 74 64 41 0.98049803883471842 22 686 23 759 20 764
24595 1.2154480501297813 0.32356583049815513 4.0149866255874409 158 141 123 1.6112443085771431 22 1456 20 776
24596 0.81432863235779152 1.0914821082936561 3.2335469117140967 71 49 24 0.79800023474070247 22 697 20 781
24597 1.4022282012181997 0.60601681090354187 3.3973115554679709 11 12 0 0.50873993801086881 22 884 20 833
24600 1.3976170781437243 -0.13074196582641132 2.9927358764289425 32 26 1 2.0681582113698904 22 991 20 1127
24602 1.3117390728702685 -0.10214720128955601 2.7718841191257377 164 148 133 0.30519729317665845 23 1192 20 1153
24604 0.63914463391922416 1.0503329914535486 2.0291150162178111 0 0 0 2.4093352604956575 22 1040 23 1236
24605 0.64971352063060561 0.99782720637028322 2.012255154560274 146 125 94 1.7946518749613354 23 1244 20 1189
24606 1.5006989223381872 2.406856338167771 6.0489911759092125 110 92 78 1.0837011846144564 22 1567 23 888 26 882
24608 1.2162487964751443 0.63250611441089921 3.4324708821310423 83 80 49 0.79192191960727021 22 1601 23 1488 20 1383
24609 1.3565015869532129 -0.018001264999449693 4.5862705891383007 23 16 8 1.0550225117837788 21 7767 20 1427
24610 -1.6843674344934656 0.77678421361885297 4.8939683193977999 35 23 11 2.4005846309919776 22 1476 20 1431
26311 -0.96359361479539363 3.8559802491574047 6.9402557421518818 94 71 53 0.43670746724283221 26 2157 27 4043
24613 -0.26436939305324286 3.007210275573724 5.103967816715536 128 114 101 1.2424836926314955 20 1527 26 2269 21 643
24615 2.0895852366904681 2.1904787023152785 4.7982959095311957 188 171 153 1.3574622528437088 21 3102 23 1626 26 1497
24617 1.763073230000646 -0.29011090364841102 2.8674790144190831 95 95 43 0.065791373864065028 22 1928 20 1747
24618 1.431923223050342 0.21069134616428015 2.1990495835731543 122 130 70 0.28184672688351703 22 3350 20 1788
24619 0.37694207471573971 0.20533640245295964 2.4466758100856203 157 133 105 2.8518938274884804 23 1790 20 1838
24620 0.77922120549846041 1.1445603711252972 2.2471427502239978 0 0 0 2.1756668536965984 22 3046 23 3327
26319 0.77918231871118837 3.0043193079298232 6.9849152897646318 30 16 3 0.073832469701460304 20 2207 27 4097
24621 1.3187810114127014 2.4554422911459426 5.9113099697946598 157 147 138 0.91951424046674735 22 2154 26 2233 23 2273
24622 1.3391628881055799 2.4417820258810776 5.9352455015176364 159 149 139 0.74342545123767356 22 2153 26 2232 23 2272
24625 1.28480186495321 1.2664798771723293 3.6908494458117489 13 9 6 1.2848487235214812 22 8882 20 2401
24626 -5.4185213907082668 -0.099722511936092273 7.7240359284034348 75 51 27 1.2676356580511112 21 3271 27 3067
24627 2.0958703514626489 -1.0522172125113503 5.726606004995995 87 66 45 2.6145101157704049 21 4018 20 2889
24628 -3.5407436155604022 -1.3697178534003482 5.9694845036998334 0 0 0 2.0301232375012783 23 3024 25 2650
