# 3D point list with one line of data per point:
#   POINT3D_ID, X, Y, Z, R, G, B, ERROR, TRACK[] as (IMAGE_ID, POINT2D_IDX)
# Number of points: 432, mean track length: 2.9585527822303641
66930 -1.6052012334404007 1.8517770358443733 6.6278035512881877 134 115 82 1.5300004204490643 35 341 36 261 37 314 38 206 42 195 46 422
66934 -3.2543811526983304 1.9672915772411153 6.5671574230975569 156 139 96 1.1272913692330222 34 559 35 456 36 512
66936 -2.9053024571054031 2.1091605848157586 6.1724749803525993 183 175 138 0.83623029358179579 34 376 35 462 36 544
66938 -1.3565359358927809 1.8478022374993406 6.7462765332410797 130 108 71 1.8569472541600558 34 622 35 529 36 566 37 421 38 534 42 558 46 461
66941 -1.7251948379628232 1.3399704066640965 7.6378927703938686 124 111 79 1.7200152125521333 34 615 36 273
66942 -0.057884065254404003 1.7678340517196476 6.5534225184954256 77 58 34 1.6536218617562037 34 735 35 545 36 207
66944 -2.5986075490496701 1.6456075745544883 6.9718772995887655 88 93 89 1.6314315874659391 34 588 35 602 36 704
66946 1.4072938429512942 2.5942425000255169 4.4665926441581467 70 60 48 1.1056024231651711 34 671 35 715
66947 1.5108112875716859 2.6650801603447896 4.2576826113219557 58 49 34 0.36131419816640697 34 666 35 716
66948 -0.81022906313408094 3.0841915477673942 3.5986605993900653 153 147 115 0.51488262446617195 34 406 35 757
66951 -4.4182175615718977 2.3830522501634119 5.766673385229649 77 77 67 1.8967298327687736 34 1032 35 1155 36 990
66952 0.77346827695465659 2.7774318004476979 4.1409320150752906 71 62 47 0.5116912304172323 34 794 35 1240
66957 -1.0062860044569335 1.8205869480415182 6.8019075294432758 126 100 65 0.23602532361734774 34 1396 36 1671
66958 -0.76670130722308882 1.8836507794934303 6.6162395156329001 91 64 35 1.220000679144682 34 887 35 1465 36 755
66961 -0.68442756673387628 1.6993416477562919 6.9750309187406438 116 87 57 1.2641796631871884 34 880 35 1510 36 770
66962 -0.90351934732523564 1.1716628755518415 7.399670736697133 72 76 74 0.014509564363964635 34 2183 35 1514
66965 -0.19080384100492859 0.38368261691415567 4.9905635438545799 100 104 98 1.0700039544186979 34 414 35 1622
66967 -5.2701063192426947 1.8520098730225198 5.8018680550301509 185 222 228 1.3644230159803497 34 1174 35 1658
66968 -4.2834381486250228 1.6593350687886239 5.4325232746163961 143 179 195 0.23926587763822676 34 2037 35 1715
66969 -4.1691565684466916 1.6019335173201601 5.5625757040885846 111 145 157 0.76816306481035868 34 2031 35 1735
66972 -4.375836244396325 2.3739103071063474 5.7791860087678488 187 175 142 1.3075554840292651 34 1233 35 1779 36 2413
66974 -2.6753597020213502 1.9971835709126482 6.1362926130853976 180 184 163 1.7299888541002997 36 2953 38 2761 37 3283
66976 -2.1594691126922316 2.163631421935809 6.1520735326118121 162 148 109 1.3244095179790469 34 1711 35 2022 36 1785 38 2785 42 2472 46 3227
66978 -0.61718309480948241 1.2180985878546327 7.6940662177983272 85 79 57 1.3332448086563238 34 1800 35 2184 36 3553
66979 -4.7259602103723104 1.9225703218767338 5.035309966043358 169 209 221 1.1255875924682472 34 2091 35 2209
66982 -4.6509077358622291 1.7721612926461798 5.7728374399848521 133 166 171 0.41271523886748879 34 2399 35 2266
66985 0.52807626182763534 2.8600921224707267 3.9899836705863616 129 122 103 0.20832308734077343 34 1449 35 2389
66986 -1.6273824008453179 1.6848177024405202 7.098367108094533 111 89 50 1.96456185322747 34 2212 35 2419 36 2878
66987 -2.7485509597478308 2.3872326571543727 5.6111192157748535 184 170 131 0.9111092042840232 34 1875 35 2574 36 2759
66988 -2.6773160847952688 2.4290954948194732 5.6097885958541553 158 147 125 2.0410644256923671 34 1868 35 2589 36 2763 37 5099
66989 -3.4827722127893921 1.6021489240706197 7.2243343626009979 119 112 86 0.0039427385357466297 34 2579 35 2607
66990 -2.542045737868555 2.4366160066008349 5.6261457482174135 148 128 93 1.4635330092791239 34 2687 35 2613 36 2772 37 3218 38 2697 42 3515
66991 -2.6318072567789716 2.3486864332134858 5.805418258272641 175 153 112 1.4972961542609193 34 1847 35 2616 37 3234 36 2784 38 4070
66994 -3.0228046397390065 1.9718453809854892 6.560578139346843 110 98 74 1.3911636014266122 34 4255 35 2622 36 2950
66995 -2.2981568731159929 2.335487940159048 5.8425972261923702 148 124 86 1.6889370340879148 34 2760 35 2675
66998 -1.3281300724565477 1.6615362199293242 7.0311717063077079 86 65 38 2.0819199239260353 34 1389 35 2807 36 3310 37 6348 38 6136 42 6590
67000 1.0028976974663832 2.9353422116665664 4.0627884791834683 118 110 89 1.1959990159878924 34 769 36 3315 37 4753
67003 1.6352498948329797 2.3761201893874038 4.9620086572655886 97 128 133 0.79195199511227787 34 1559 35 2910 36 3127 37 3662
67007 -5.1314489908453176 1.9296340097234637 6.3322528769615731 114 126 115 0.48860794697062382 34 3924 35 2981
67010 -1.9291238007549636 1.3539609206874907 7.5838747788612366 150 175 181 0.64242665160583412 34 3027 35 3005
67011 1.1528410604230293 2.7350150943669935 4.2421705396913776 77 63 48 0.25600382981868897 34 1642 35 3057
67013 -6.9987783645868982 3.7896386440759326 6.0692690285053361 109 138 146 1.6167745467217134 34 3682 35 3140
69412 -2.0572108926886759 2.3112798250311033 5.8414339151563635 120 103 77 1.7884142812516945 37 3344 38 4454 42 5385
67014 -4.7012826222995399 1.7976779237983866 5.7126990616136437 171 201 201 1.0469371183092866 34 2384 35 3203
69416 -1.0644716398833569 4.5844497262240251 1.54777012450574 76 71 45 0.44059154095518088 37 5362 38 4493 46 7728
67018 -4.6201455112062648 1.7069732351480396 5.7618548709127753 112 145 150 0.77568448519092326 34 2391 35 3221
68393 0.75961437295846246 2.1921362404122156 5.772785644612676 25 15 6 1.7085845755127511 35 500 37 297 46 466 38 383
67019 -4.6526355845840861 1.8171174692020613 5.7291354767788079 117 148 153 0.68271799122107657 34 3209 35 3224
67021 -4.6393325040571467 1.7271427785134867 5.8085967498590527 108 141 146 0.49244100827507437 34 2400 35 3230
69431 -2.9526055759222967 2.385716873872548 5.7220047256877145 173 163 128 1.3420056461465135 37 5136 38 5223 42 5632 46 6717
67025 -4.3669811306286306 2.2782513993973308 5.8586439696584236 66 69 58 1.5218671388323488 34 4000 35 3355 36 4052
67026 -3.3880207183093609 1.5222980650678635 5.9948308502741821 79 98 104 1.7018604876067369 34 1970 35 3497 36 4290
67027 -2.7676793971043741 2.3939979049532671 5.5938605341103926 163 146 103 0.17341427928711087 34 2634 35 3617
67029 -3.2099910610120697 1.7070555414719406 7.1451629227306883 158 167 140 0.94492786418218999 34 4247 35 3716
69428 -2.9250522746483374 2.5058026395780733 5.521211162787993 161 153 116 0.44972380989050736 37 5162 38 5166 42 3904
67030 -2.4232439682482649 2.3152552998657163 5.8030878689281753 168 149 109 0.386740071984921 34 2715 35 3720
69432 -2.6962857697045961 2.3866329086472589 5.5573721241104819 115 138 144 0.76848939949240713 37 3200 38 5227
67034 -1.7838022160390758 1.8500089281865508 6.7458668711803407 165 150 117 0.99091490586063835 34 2860 35 3921 36 4822 38 5585 42 6519
67035 -2.9154286629378983 2.1706994310945458 6.236622316353353 177 183 165 0.63187466271267356 34 1873 35 3952
68402 1.3605118468514072 2.3227993053065012 5.3392777135664762 36 23 14 1.1700570962651986 35 1164 36 451
67036 -4.4066060653797505 2.361380553717265 5.6562879177469307 117 116 89 0.067136353656285258 34 2463 35 3978
69427 -3.3805582084890142 2.4911125905909928 5.518027706419355 173 167 131 1.0165266241391824 37 3135 38 5110 42 6054
67037 -4.2841194171396877 2.3488118168629666 5.6774616057720424 145 135 104 0.31302935088615635 34 3285 35 4059
67038 -3.3220475128428868 2.6321645607584889 6.319888860173184 156 157 141 1.7143941880011868 34 4226 36 5648
67040 -2.6750431497430034 2.3459872426124626 5.7041817832615056 177 157 133 1.2826991405343509 34 3543 35 4418 36 3981 37 7559
67041 -2.8710513411681928 1.7854226113240421 6.2754190365229938 84 93 75 0.93986585593487482 34 3488 35 4433 36 2506
67042 -3.5340903927326428 1.6316622732554762 7.2787180143127062 83 66 45 0.86271583984992783 34 3437 35 4434
67043 -2.6966078489883492 2.3194528607964942 5.7982588708754266 164 147 102 1.4192923498182701 34 2937 35 4440 37 6008
67045 -2.5840197295743956 2.2727682864819276 5.8250009251892827 121 107 66 1.8089873475856992 36 3959 42 5502 38 5316
67047 -2.7551027689410259 2.1482010818563224 6.2163440319629446 177 184 165 1.3857735615285607 34 2959 35 4477 36 4169
67048 -2.5573800011827621 2.0398800637009491 6.1461936305445954 181 176 147 0.063151712489547845 34 2694 36 2540
67050 -2.123191209869538 2.191639435728713 5.8226700592813376 154 136 116 1.7447061198474791 34 2287 37 3328 46 6992
67055 1.3945036476949757 2.3079519783928664 5.1358104976749512 86 117 120 0.68859220909975138 34 3597 35 4711 36 4897 37 6939
67057 1.5477745523586537 2.3625002781687727 5.0276659157181269 101 139 144 0.74525644708285044 34 3606 35 4722 36 4967 37 6924
67058 1.3336016480989381 -0.57170583199465197 3.6828878945187564 64 51 43 1.4952905632303728 34 4432 35 4728
67059 -4.9354020704759716 1.9482387093238682 5.6391948641221878 180 215 219 0.86438592569795047 35 4757 36 2345
67062 -4.3194016226121965 1.6564421511530782 5.5051653408099703 90 123 128 0.22194543083114746 34 3923 35 4797
67063 -0.080554137290580086 1.3292339648181404 4.0978738667233143 73 101 110 1.4834376476444051 34 307 35 4866
67066 0.94894501056009173 1.3355514388348888 4.0376811165920454 34 67 84 2.362295835336691 34 4178 35 4918
67067 -0.48531224751056523 1.2194522679738975 7.9410291714511763 100 100 85 2.7166820903381801 34 3563 35 4938
67069 1.6951312940090142 4.1532097104365526 6.0666766843499076 31 21 11 1.4874122940179151 34 3607 35 4961
67073 -2.5874778374156042 2.3173364568501937 5.700202792861166 87 68 48 0.13046612065866567 34 4302 35 5651
67075 -3.4895193721712761 1.7260676794009708 7.2201172124156932 132 139 123 0.35385223442921543 34 3457 35 5655
67076 -2.5208320794157668 1.9400129341607013 6.0931261805801054 96 109 102 0.54672486634770601 34 4317 36 3916
67078 -1.7990008003763995 1.602773743356114 7.2833905847904372 69 64 49 2.5588437803504869 34 925 35 625 32 1090 33 974
67081 -0.70943473917983535 1.9012472170494381 5.9732550128241719 104 110 98 0.90565167304141636 34 895 35 631
67083 1.214913799995518 1.4704223359387851 7.1701537029307501 104 90 63 2.229670644250854 36 4153 37 4333 38 5871 42 5953
67085 -2.9282757229610259 1.5275859141116332 6.4887154630988793 139 120 90 1.7550920308200253 35 2609 36 3929 34 2600
67086 1.5750666321812361 2.3532787943651314 5.0023090360171709 89 125 131 0.73385774821968164 34 2268 35 3087 36 3541 37 4536
67088 0.95608195918675809 1.8568588051565746 4.4305948779686348 95 225 247 0.69573225743408296 34 3590 35 4929
67089 -5.3665198555356444 1.9237869099749547 6.1615370670898271 164 198 200 2.1898013638320979 34 3886 35 5088
67788 2.4868638310563371 0.0023340363639180149 9.1333328148261508 0 0 0 0.37078890143540416 23 493 24 507
67111 -0.80239919939977111 -0.33181881318640305 3.2732117650544028 0 0 0 1.3243588795606773 1 169 11 309
67119 0.39127470137613884 -0.44664404111539113 3.7836236745652259 0 0 0 2.1690163479054982 1 524 11 6397
67121 -0.096304303184380699 0.64112845481017489 3.7448026094905842 0 0 0 0.70441548014868682 1 538 11 2267
67804 -3.04663511839551 1.859842834662095 6.5456959307187645 0 0 0 2.2099456265083557 23 660 24 1041
67122 -0.0087422402407299274 0.73134121982179046 3.8578559472189338 0 0 0 1.0287166117765099 1 549 11 2280 8 1977
68822 1.3286446824215556 1.8074625367107238 6.60463316179752 83 62 43 0.89533423220350639 36 2995 46 3660
67124 -2.3875772270339741 3.0390491138464735 4.1111614138202883 0 0 0 1.3783094553033941 1 646 11 4726
67127 -0.9570481285011021 1.0383795659361919 4.2498523088716675 0 0 0 0.12778874105227328 11 2316 9 965
67803 -2.8579654035746151 1.7139264562994774 6.3722548368051362 0 0 0 0.12125454899758215 23 658 24 1040
67130 -1.8506217348235532 -0.034206690047822647 9.201429148058903 0 0 0 0.67794081929416805 1 829 11 2289
67132 -1.2023115087114871 -2.3575140056638473 5.7837383922437624 0 0 0 1.0373077011550631 1 951 11 3383
67135 -0.94090897575027577 0.73209071531094549 3.2332985187773442 0 0 0 1.0388691012076512 1 1076 11 6703
67140 -0.46986302542200714 -0.53149080440840601 2.898230100021292 0 0 0 0.69612784566454977 1 1320 11 5682
67145 -0.74352843785011047 0.67209293706470219 4.0802883794264391 0 0 0 0.45546718372280026 1 1481 11 6504
67146 -0.60942055768521808 1.6108021120382496 3.0758397889898528 0 0 0 0.30543010375600066 1 1488 11 6179
67150 -1.1606327484230829 -0.34327189006908571 6.4124306515303529 0 0 0 0.31646791726682649 1 1643 11 4405
67151 -1.8167274512975258 1.1848012422710197 3.850467478053393 0 0 0 2.3517369961281518 1 1649 15 6797
67156 -0.45966065344081253 -0.59035537026280582 3.0716261517683878 0 0 0 2.4383982307535907 1 1847 11 5686 3 1834
67161 0.34965643784372313 0.28165747613883857 9.4160155450890244 0 0 0 2.2131640963746699 1 2191 11 7858
67163 -0.74590305919218147 1.8873147024398413 1.5817727863911577 0 0 0 2.1038033478080873 1 2389 11 5049
67166 -0.84228096192657764 -0.68164164970514352 3.8723507325324253 0 0 0 1.9673142226641911 1 2644 11 5726
67167 0.42601156725188066 -0.4173935193159114 3.7823560539890768 0 0 0 0.81016500857938412 1 2662 11 6402
67169 27.385482207348247 -34.653798443682376 81.300767479229819 0 0 0 3.0407141699593501 1 2878 11 4559
67178 -0.084634209378487812 2.4176669030416278 4.4735537130366145 0 0 0 0.031230059761525077 4 21 9 43
67182 0.083858813946449756 0.56375394141776602 4.0445290599262931 0 0 0 0.30322255773871754 4 75 9 64
67184 -1.1876557469686149 1.1670767248172302 7.4322952962299418 0 0 0 1.7517150603125295 4 111 9 178
67185 0.80153356404786757 2.2273123650885771 5.4289972116320317 0 0 0 1.8178904452669633 4 128 9 138
67189 -0.60670791033239624 0.45690978698910789 3.8608124292951653 0 0 0 2.0622988813764578 4 253 9 357 2 390 3 507 8 1959 10 661
67190 -1.8597370146386152 2.6139231660275932 5.2934730658833677 0 0 0 1.7000216311277534 4 272 11 2457 9 483
67191 0.54386179476729224 1.6213442705652279 7.1819211174698045 0 0 0 2.0579589337412232 4 300 9 305
67196 -0.60401808422066205 0.067722392544449644 8.6074006675363446 0 0 0 3.2249338187616363 4 363 9 844
67197 0.70022435986675358 0.11960795385620303 9.5689431808307024 0 0 0 1.3956076151786849 4 373 9 632
67198 0.49885405942319866 1.3862669059791242 7.5314221891004767 0 0 0 0.36426010473405018 4 398 9 792
67199 0.31983600667992279 1.6321441512043839 7.2627535172128672 0 0 0 0.030723920682584963 4 402 9 785
67202 -1.7293526248105389 2.756685946331356 4.9410202457847285 0 0 0 1.8843406098329627 4 429 11 3103 15 1835 19 3298 30 2699
67207 -0.51221132434158401 0.50483063021662777 3.7557102270451881 0 0 0 1.6440367279134098 4 529 9 1557 2 1652 3 1112 10 1172 11 3522 14 3347 18 1850 43 567 13 1347
67209 -1.3862878531173861 0.29457933189578722 9.3630428705097355 0 0 0 0.74943859114684241 4 582 1 865
67210 -1.0937904548955597 0.3107553127455413 9.3632351255514568 0 0 0 3.1753570039872279 4 583 9 824 1 866
67213 0.18035086141002341 1.0624186106434728 8.0120516393534533 0 0 0 1.1230567358241093 9 804 3 1005 10 905 11 2991
67218 -0.8552271149957964 -2.6457978825826896 5.8432348245173102 0 0 0 2.9168735742266287 4 732 9 170
67222 -0.40956043010430604 0.5609618767470067 3.6260548181830696 0 0 0 0.15966941347161956 4 766 9 1558
67229 -0.33976360364311697 1.857730697152538 4.5575536876170579 0 0 0 1.194771698045167 4 995 9 2574
67237 0.56245535894210208 0.23278134970567957 9.7797606457345001 0 0 0 0.88391674982050805 4 1214 9 2460
67241 -1.6972527809806388 0.088917629522109659 9.2168944492285956 0 0 0 2.1120345613256428 4 1275 3 1251 13 945 9 1827
67242 0.51916168954363817 1.4146272251192873 7.3838358855328607 0 0 0 1.6790310263657973 4 1286 9 3148
67246 -1.6410702497729066 0.08144801968085634 9.0723464846937372 0 0 0 1.81918559253779 4 1429 13 1498 3 1473 2 1431 10 1517
67255 -1.5455950794414008 1.420865533546027 7.5356987203838353 0 0 0 1.5607484119579365 4 1725 9 3194
67256 -2.2571271048355879 -0.12870160975460382 8.8126986712057356 0 0 0 1.9641198437843759 9 5913 25 5239
67258 0.20740396994686447 0.32006128066824535 9.2751355180952046 0 0 0 0.83147881564023496 4 1890 3 4639
67259 -1.5940421981062181 1.8028623117699019 4.1791537936245131 0 0 0 0.031704553101769381 4 1935 9 5267
67262 -1.4735633875399974 1.3931743786656143 7.2858534910377131 0 0 0 0.83767202280530972 4 1985 9 5281 3 3581
67265 0.035471498432770976 -0.65241246076787163 4.033135196914218 0 0 0 0.73364966958575706 4 2022 9 4731
68644 -2.4786566233633351 1.3879420888584908 7.2021527138391654 102 96 72 2.740763525658894 35 3879 36 5442
67270 -1.0171729758011243 -0.30419445265755385 3.8437520772160823 0 0 0 1.5585980542286613 4 2262 9 4798 10 3141
68643 1.4085581759629864 2.2842363360450699 5.1039303564274556 133 163 165 0.70599541849460956 35 4712 36 4952
67284 -1.2025393027909337 1.2378553672650752 7.4553090246033298 0 0 0 2.8261088211723115 4 2957 9 5931
67285 -1.474036507046554 0.17519391845298135 3.6935276764487672 0 0 0 1.2456018091560459 4 3029 9 3566
67641 -0.089203600296801522 4.3108588928557765 2.1211576893671866 0 0 0 2.1177707204267384 14 1405 19 1161 30 1344
67306 0.14128744530987719 1.0686869530351661 7.9741245576112529 0 0 0 0.58806393106513322 43 975 25 4074
67307 8.14997329011101 18.691425593053236 65.492423181199342 0 0 0 1.9606627005853747 11 3178 43 1333
67312 3.405549038610745 -2.5729656662074234 8.0942254024064031 0 0 0 1.5344019784768559 11 3431 43 1384
67317 0.89637869830396566 2.257930131593235 5.4864696344432762 0 0 0 1.4614983461698525 11 3792 43 1335
67323 3.3201127741479448 -2.550558446814247 7.7626691843988569 0 0 0 0.9305085361867218 11 4561 43 1048
67325 3.2499797374663522 -2.2883699124798524 6.9049632839646335 0 0 0 2.5692880380968219 11 4574 43 2199
67326 0.46888427198546145 -3.1101997549957883 7.808223823776971 0 0 0 0.26843845953126805 11 4614 43 1372
67328 1.1757828134459225 3.0331917436764817 4.3537125987169807 0 0 0 0.85991091165268796 45 686 43 755
67335 -0.85539805484359765 0.7248227136396298 2.8333444763552516 0 0 0 1.9835926537566455 11 5471 43 347
67339 3.7355853059997144 -3.1097036694018421 7.1633372204350607 0 0 0 2.1654782704032942 11 5654 43 1367
69069 -1.7328574323684915 2.3043265016212624 5.8447844531444471 142 136 118 1.2750606492556642 36 4445 37 3389
67363 3.7342921683834747 2.5774829252780309 6.1649527752162241 0 0 0 2.1491258524513084 11 7028 43 1495
67372 -4.2074415384489479 1.9771781035106748 5.4907531867156294 0 0 0 0.36587059270961275 20 105 39 130
67377 -3.0056813804001647 2.9877207843408664 4.4863915898494815 0 0 0 1.4135539021127443 20 327 39 230
67379 -2.6816413373404555 3.2200293477963609 4.1569189774656259 0 0 0 2.0392668558154114 20 462 39 237 21 454
67396 -3.0078439631728831 3.1124210335685047 4.2617065292931633 0 0 0 0.0058921011247469492 20 937 39 551
67399 -2.912413454220744 3.166329842205251 4.1821032853907933 0 0 0 0.91047866987593107 20 947 39 849
67402 -2.4228095946588608 3.383129804682464 3.9166441469623217 0 0 0 2.2737121781633727 20 985 39 810
67409 -4.3343441647718901 1.6535942624708748 5.4675973335013621 0 0 0 0.8542385078567718 20 1242 39 1629
67428 -3.134760045704851 2.6693189949722678 4.9484651859345865 0 0 0 0.55931002320651335 20 1703 39 1030
67429 -2.4921919446774141 3.2648751927101545 4.0645523670706494 0 0 0 1.6750944046136931 20 1791 39 844 44 743
67430 -1.6907433914179446 3.0625691770827297 4.3882038327464414 0 0 0 1.1468642944932828 20 1805 39 834
67431 -2.4832386282771046 3.3979482117174116 3.9029572964750527 0 0 0 0.16319807380716111 20 1827 39 831
67443 -3.7684489766714755 2.4926090816862807 5.2288014309199573 0 0 0 0.16427289440511356 20 2385 39 1664
67454 -8.0662274333439026 -0.079743611929210367 8.6033992513839301 0 0 0 1.5645564081017547 20 2603 39 2626
67459 -1.5930421841339573 3.3596393098756319 4.4857993676322998 0 0 0 2.0208353520179223 20 2933 39 243
67471 -1.4023801952778172 2.2104624132239947 5.1531928656991459 0 0 0 0.76107593025691378 20 3573 39 948
67482 -4.208769309300453 2.2254015784543859 5.5659559467429958 0 0 0 2.7089706862101961 20 4394 39 1921
67484 -6.8505289442633428 -2.3792157589534892 20.335063316697159 0 0 0 0.62896614315545929 20 4794 39 2186
67499 -0.8457062682828127 -0.18442576704162897 3.4682133691227968 0 0 0 2.0521585284290751 8 318 43 114
68919 0.24166647359091259 2.2156014835498961 5.1557149186973383 56 66 55 1.9870193450908726 36 3297 38 5569 42 4752 46 5959 37 4690
67537 1.5833275280536521 2.5346282845811374 4.3110273188093347 0 0 0 0.72795608406632772 12 1951 18 7247
67543 0.93524907233629295 0.1682381006420566 4.1631920111691327 0 0 0 0.44277862973104665 12 4565 18 4703
67550 1.0922756785772163 0.18901543997456985 9.3491769980783985 0 0 0 2.2762593072350974 12 191 24 504 5 255
67573 -0.23295874979806852 0.7051172497370698 3.8672124386706068 0 0 0 1.2097320578888617 14 90 19 87 18 79
67579 -0.38422771363817243 -0.56065709969957722 3.1443376193914014 0 0 0 1.927208153686002 14 259 19 283 18 331
67581 -1.9269440490546645 3.5344582074685431 3.534377095852117 0 0 0 1.7329723927932037 14 344 19 244 18 268 24 149 26 236
67583 -2.4054391597228872 3.1003484987178043 4.268146298111108 0 0 0 0.8665603400826547 14 375 19 298 18 301
67585 0.25248768689026851 3.4015161199484742 3.6527669839334407 0 0 0 3.2193686323448287 19 233 15 221
67588 -0.14582686166675457 3.4455421746947321 3.6862047547184558 0 0 0 2.120644391136508 9 108 26 231 19 235
67592 -3.4088322782505469 -1.8214193593347698 6.206594713056897 0 0 0 0.8727717873598102 14 639 19 770
67593 -3.5839980699011806 -2.2987898534192528 7.8733297224518113 0 0 0 1.4128297750997758 14 641 19 771
67594 -0.33106150124370448 -0.22707703697095813 3.3465710766158931 0 0 0 2.0396087642452763 14 655 19 1247 18 1344
67595 -0.44267042700751824 -0.14073981668839053 3.3436329770257611 0 0 0 2.205468209251916 14 659 19 1330
67597 -0.23179474418950924 3.2214051886418527 3.6519056766926772 0 0 0 2.1386678092583802 14 764 19 1477
67600 -0.88958996970712356 4.275331001676947 2.2082810000355755 0 0 0 1.4685087236483252 14 816 19 622 30 787
67602 -1.0062287385847768 4.2966216123111103 2.1731533284602165 0 0 0 2.3304912382394587 14 826 19 640 30 810
67613 -1.1628631096939541 -0.35399461975700636 3.591547942519171 0 0 0 1.1511534091708313 19 3067 15 1596 4 2823
67615 -0.27628036573882703 0.75399776906266602 3.8550025522213249 0 0 0 2.9554518597521624 14 1075 19 1387
67624 -2.0988950553239465 3.99740612231524 2.7732354939045818 0 0 0 1.3047256748025875 19 906 18 903
69320 -1.7076934896606681 1.6647886069072622 7.0169804981003896 126 102 64 1.0827693425425597 37 1999 38 2898 46 3426
67630 -1.1978498516771547 4.2146395421373102 2.323236808791719 0 0 0 1.4052303259289747 14 1318 18 1043 30 1059 15 793 26 956
67633 -1.1438492993632592 4.2378085068620361 2.2615895593399524 0 0 0 2.9660803125960076 14 1348 19 592
67639 -1.0419289558926039 4.2790990752885616 2.2094943221667718 0 0 0 3.0428456866831146 14 1387 19 628
67648 -0.087937501766095383 1.2209063989177162 4.1640231260027631 0 0 0 2.1414540586140594 14 1678 19 8238
67651 -2.2645977555940076 3.959644668294378 2.9027284262453459 0 0 0 1.0178443965925699 19 856 7 1632
67653 -1.6398847008353881 3.9040581018433147 2.8930304939686096 0 0 0 1.5172594634051293 14 1754 19 2096 18 2113
67654 -1.5820679672448779 3.8975941796892446 2.8827133425348759 0 0 0 0.71535037015006853 14 1755 19 2094
67664 -3.4159598532691242 0.65095102895218615 8.297509193462135 0 0 0 1.8272245993696907 14 1913 19 3146 18 1808
67665 -1.8082896331978369 0.99037392060335172 3.8301198789860074 0 0 0 1.2575299490878773 19 3524 18 3061 16 2316
67666 -0.31007614032173991 0.85230351395793069 4.1281954376479479 0 0 0 2.7455501376143108 14 1947 19 1397
67667 0.32007875030604244 0.73898865979129191 3.4347186304190864 0 0 0 2.0005030565423882 14 1968 19 3137 40 403
67670 -3.986635473134676 -2.4475267511020204 7.7513474293187743 0 0 0 0.98683801970436169 14 2059 19 2035 17 693
67674 -3.1452545585501199 -0.70471717966593594 8.6259471315522234 0 0 0 0.55812194276102711 14 2218 19 3631
67677 0.17149056132068133 1.0954813660812235 7.9252148045172346 0 0 0 2.6085775239185289 14 2304 19 3181 4 623
67679 -3.1515884667534095 3.0621594593984929 4.4130581560496269 0 0 0 1.7062318380943597 14 2400 19 3320 18 3192 26 2035 24 1167
67681 -1.0343227292047854 -0.23224446248232902 3.852981017935492 0 0 0 1.1544623841081187 4 2078 2 3998
67685 3.0657363479405237 -2.2799786122448742 8.489443765730277 0 0 0 3.0061416102579974 18 1944 11 2220
67686 -3.6877188521400628 -1.1983351506322431 8.3936014778256638 0 0 0 1.5358733678593943 14 2576 19 3072 11 2896
67691 -0.69355123011178665 0.7666485148715666 4.0731328028615543 0 0 0 2.7434067314798556 14 2679 19 3144
67694 -0.39007201420495263 -0.60815535727465042 3.1079580155887521 0 0 0 1.6116189261261189 14 2841 19 4647
67700 -2.0094293432834571 -0.74023211129887323 2.0925384067377122 0 0 0 1.3937912205246215 14 3131 19 1295
67702 -4.1835836313773767 -1.3785567592773025 8.3028250756063215 0 0 0 1.0338277928261239 14 3265 19 4682
67706 -1.8726172375601449 -0.38016360816701489 9.3755260632565616 0 0 0 1.2284009079117053 14 3355 19 7778
67707 -0.39060485572096082 0.5889084373454101 3.7160220553109271 0 0 0 2.5608000407680716 14 3363 19 5759
67713 0.27950167943583598 1.1674535500175818 7.8540584924173436 0 0 0 1.4504935100476715 14 3506 19 4906
67718 -4.2164306324637941 -0.035755472850278573 9.4816795350397562 0 0 0 0.31399007900075004 14 3818 19 4770
67719 -4.0116205753639775 0.46876899637949548 9.1508061283065238 0 0 0 2.3487936461147796 14 3871 19 5819 18 4791
67720 -4.4597708054302432 0.5209283071532087 9.125058056931632 0 0 0 1.5302039069766256 14 3881 19 5840
67724 -1.6147554014624401 1.633697517470857 3.9299677756326932 0 0 0 2.5353013323817564 14 3940 19 8479
67725 4.1015845230684507 1.6059794255433288 14.78253154166719 0 0 0 0.58064171764958639 14 3946 19 4936
67726 -1.5481235375284719 1.6912221314599476 7.2189888668953976 0 0 0 2.0368801775005796 14 3947 19 6857 11 4843
67727 -4.1167683386111342 0.49729047458800729 9.1380127354533105 0 0 0 0.14089533657748626 14 4021 19 5833
67728 -5.0587352339078411 0.55898400086507938 8.8767850985893908 0 0 0 0.40303342418814375 14 4031 19 7146
67731 -1.8464205507332498 1.2733541742607599 3.8370577530552703 0 0 0 1.9705271565569245 19 8256 11 7581 8 7999
67732 3.6320951206651761 0.88830200335346288 14.174129344157681 0 0 0 2.9993298026386155 14 4083 19 5912
67737 -0.020379303687791405 -0.87274774554538426 3.5046485243927865 0 0 0 0.87059247137059648 14 4233 19 6365 2 1571
67740 0.19861626168131571 -0.65795697050253321 3.6748622826955337 0 0 0 2.6126459923495848 14 4266 19 7335 11 6331
67743 -3.6415631644451065 -0.78591791166746516 8.6118008968734205 0 0 0 1.2996653364157804 14 4392 11 4400 18 4688 19 5616
67745 -1.6511647943773464 -0.36708111208004546 7.7947335396714035 0 0 0 0.88107272538651837 14 4417 19 4745
67747 -3.0161636332492874 1.7021612870873661 5.9610963712647624 0 0 0 0.46267400808362924 14 4459 19 6096
67748 -0.23756313579698604 0.77387919393422833 3.8594115536349998 0 0 0 2.1384232463991495 14 4522 19 8062
67751 1.3324104442187212 -0.00092213095566941812 8.8191916013373337 0 0 0 1.5495858048496034 23 35 24 49
67754 -2.7386594502126731 2.7531367465393557 5.0717669578891922 0 0 0 2.1089185985765662 23 65 24 112
67755 -0.54654734843677522 0.13287186027636561 3.5999030949413404 0 0 0 0.82295863370384725 23 77 24 229
67756 -2.7693226232109764 1.4958904114054528 7.2183626226545332 0 0 0 0.12767493509897382 23 91 26 183
67758 -0.33230856500814432 -0.58558133176658711 8.8604734299687617 0 0 0 2.1101313591210529 23 100 24 88 25 76 26 84 29 63
67759 -1.5136999600523984 0.34388585561596546 9.4901247811750178 0 0 0 2.5972493221970483 23 106 24 139
67762 -0.55771262210112738 -0.07896912246802934 3.4670760358700199 0 0 0 1.0820207905143879 23 167 24 320 43 133
67766 -2.3214558145243389 -0.43214822407955261 9.0080548088490744 0 0 0 1.5368997154617494 23 271 24 394
67768 -2.5246792585850115 0.27122158788782086 8.6401081411973113 0 0 0 0.22186625430191495 23 281 24 496
67770 -2.0094749099352258 2.7840818052828911 4.8771583779786116 0 0 0 1.0056601877042393 23 320 24 430
67772 0.82114327265243026 3.5588076023958251 3.3616881912307059 0 0 0 0.087405938955240223 23 355 24 405
67773 1.4210529153595595 -0.26533035256164961 8.9835502561557696 0 0 0 1.5393118407286506 23 359 24 285
67774 -2.6954610410579765 2.7283211963537877 4.8767385836643173 0 0 0 0.54899138573655892 23 362 24 667
67780 -2.7130108838260254 0.87620180581508622 8.8012757873264746 0 0 0 2.1671611147000411 23 446 24 872
69157 -2.0720837627398603 1.6654710633266001 6.9008751167369624 111 91 59 0.76610160916233982 37 744 38 821
67783 -1.338625987654777 -0.54783297461138369 7.3476455517684096 0 0 0 1.5744207052471499 23 478 24 1887
67785 1.6357207817636752 0.057560882134827532 9.1520436558980371 0 0 0 0.32124731189521455 23 485 24 509
67789 2.9673657534092031 -0.013519922231495942 8.7486502720856318 0 0 0 0.42708762282265678 23 494 24 298
67796 -1.1465004823939215 -2.0824406760248468 2.7094071503115038 0 0 0 1.020593818038136 23 527 24 1854
70187 -3.5298363695963486 2.9362177484634979 4.0962779137108134 128 158 156 2.3973170298772715 38 2475 42 3307
67797 -1.1718049222621674 -2.0940392769072149 2.7755810089233934 0 0 0 1.1424999864460565 23 528 24 1710
69182 -2.2538571928622395 3.8148183890207217 2.9250039196251802 164 179 174 0.98366493456338588 35 1208 46 989 42 780
67800 -2.945851637308087 0.63594284701752402 8.1629728103963171 0 0 0 1.9265238798093036 23 583 24 983
67806 0.34834107565176675 3.2626748485694468 3.9516317665907836 0 0 0 2.8873021825886394 23 698 24 693
67808 -2.8362303791832644 2.5505797092941687 5.1564863846651017 0 0 0 0.72153376119638724 23 751 24 1431 26 2526
67815 -0.91186043403771422 -1.9895079662644515 2.8989169855023658 0 0 0 0.91982299966871839 23 771 24 928
67818 3.1049828847607706 -0.18802987919290365 9.0026650304575675 0 0 0 0.79323427353352693 23 783 24 953
67820 2.8686387638017012 -0.18141688151350116 9.0115301101215746 0 0 0 0.14883455222372904 23 786 24 833
67821 2.5161152627390786 -0.11767311479768436 8.979470930771333 0 0 0 0.22718040728108263 23 795 24 843
67822 0.47970661587666352 -0.63800529756429691 6.5619546472147094 0 0 0 0.0367836912000215 23 802 24 1652
67823 0.88408905361962398 0.28390770926901454 9.2771739408567999 0 0 0 1.5277590322801053 23 816 24 967 25 866
67825 -1.6317213170479545 -2.4325034243960215 3.7471688930354929 0 0 0 1.1117821555139931 23 836 24 891
67828 -1.178754659764006 -1.8357002785809931 3.1996518436085322 0 0 0 0.67727232163559314 23 858 24 6343
67832 3.1615835497937157 0.11872043628098962 8.3489125574958543 0 0 0 2.4366200363152277 23 879 24 979
67835 -2.6602761570466229 1.4934280693364212 7.139434301280569 0 0 0 1.8909781746660388 23 981 24 1566
67837 -1.2282374521247761 3.2333262813114914 4.1325683045906851 0 0 0 0.27128111318075798 23 1050 24 1804
67839 -2.579634721398675 2.5906202435078827 5.2823748793849674 0 0 0 1.0753482187367904 23 1119 24 1441
67843 -2.6597717212249581 2.6739227271817394 5.1568704428985725 0 0 0 0.62776676353434635 23 1230 24 2181
67848 -2.3845733647675247 2.4678981502948081 5.3477243532168508 0 0 0 0.87783441602127388 23 1336 24 3500
67849 -0.30661273250217225 2.6064026585913278 4.6541937807989759 0 0 0 2.035370537325508 23 1355 24 370 26 420
67854 -3.0935999328215189 1.6628930793488006 6.2316213753755845 0 0 0 0.45749728937899975 23 1423 24 1539
67855 -2.799018737734015 1.6315251674850402 6.337454937627232 0 0 0 1.3517412832549043 23 1441 24 1554
67856 -2.5450369414436316 1.8930826684425108 6.7937621137065038 0 0 0 2.2172149587986656 23 1456 24 2008
67857 -0.3366764953252015 0.37115323119531068 3.5766246313334493 0 0 0 2.0561717579352257 23 1504 24 2078
67863 -1.5735095891421556 0.27174240998215271 9.4220276798947786 0 0 0 1.0250555544803643 23 1663 24 4924
67864 3.0405965407324045 0.048619400002752639 8.7477647529786147 0 0 0 2.6599574987461194 23 1670 24 1922
67866 0.20871323499868033 0.1431789661001211 8.8758045155611569 0 0 0 1.9064687917084489 23 1678 24 1913
67870 -1.136683269865209 -2.2620894940598135 3.1753033855310173 0 0 0 0.16053104926641229 23 1749 24 5236
67871 0.60877564902091275 3.3088882541032651 3.9314777086315056 0 0 0 2.5599257013776975 23 1771 24 1782 18 3722
67872 -2.0124646602222933 3.0931710084759803 4.496530968579191 0 0 0 0.95295106190060896 23 1813 24 2281
67873 0.036334900059594555 0.16403641344333619 3.3490860033107048 0 0 0 0.25521837508065431 23 1954 41 1266
69568 -2.4277686155476315 2.3608486506960538 5.7678313230402747 133 114 82 1.2977891045699361 37 6047 38 7085 46 8471 42 6270
67878 -0.91159940576087783 1.0898690510310107 4.220096490905644 0 0 0 1.7394245971510003 23 2057 24 3014
67886 -0.3923358114274218 0.51405368674760932 3.6544789270517959 0 0 0 1.497080095273267 23 2454 24 3021 25 1522
67896 -2.718947211558461 0.71289624204517776 8.8099684095676949 0 0 0 0.29068797966706256 23 2600 24 3252
67899 -3.1202189429102214 2.2556186683729909 5.2805947606817289 0 0 0 0.33859848240845575 23 2627 24 2986
67900 -1.4492690161295141 1.7131584764737935 3.9042040790183763 0 0 0 1.4532084251354125 23 2630 24 3590
69599 0.49745689194635961 1.5062797136462267 6.8147813092568494 103 122 122 0.7850702616008608 37 5433 46 9073 38 7424
67901 -1.4161776242928079 1.7903018382550613 3.9278878560897059 0 0 0 0.83383048895838385 23 2647 24 2739
70617 0.41210086935737833 0.29433261852685866 9.3396171498644716 0 0 0 1.7187183579350584 1 2754 12 6596
67903 0.51391565433209863 3.1185745121880708 4.0962458967174404 0 0 0 2.0328659134785738 23 2707 24 2909
67904 -2.9287229884935457 2.4437309883291083 4.8140346820923323 0 0 0 1.68291711632782 23 2745 24 2197
67906 -2.4837282394750182 2.8998490069337794 4.727848766828763 0 0 0 1.8201492585844126 23 2767 24 3619 18 6643 30 7378 9 2816 16 4456
67908 0.099584167808187671 0.93071535556894347 3.3188049664805988 0 0 0 2.5971158211126006 23 2841 24 2231
67909 -3.2112355253531493 2.1889998653829643 5.7161522406092278 0 0 0 1.7975027958642871 23 2863 24 4420
67911 -2.6472122047278499 2.1776385665776021 5.7620575278426331 0 0 0 1.433576746536696 23 2921 24 4419 25 6097
67912 -3.1421006393424884 3.334608844674015 7.7792697724700925 0 0 0 2.6186740187198785 23 2946 24 4393
67920 -2.878178214865712 0.59885780782089126 8.2078352142935156 0 0 0 0.24147475114515748 23 3300 24 4114
67922 -1.8775500207456026 -1.7008672911549922 5.692782245196665 0 0 0 2.1468300521359853 23 3352 24 3386
67928 -3.152244785913763 2.3870538516069097 5.6389323485580354 0 0 0 1.636798241178232 23 3582 24 4713 26 6251
67931 0.14578419519273175 3.2123555808117903 3.9790177314155804 0 0 0 1.4327029234020059 23 3754 24 3151
67933 -2.2283175545960403 3.1508410641515781 4.2658292486847182 0 0 0 1.0081384903181805 23 3919 24 5844 17 4510 20 3078 22 2548 40 3462
67936 -1.2736897948897052 1.2886760182899335 7.2359912846796686 0 0 0 0.80219557175040113 23 4086 24 6689
67937 -1.4718837443452626 -0.05661178706034508 4.0021850370358534 0 0 0 0.34444913412863859 23 4116 24 3847
67938 1.0390452971494779 0.71166703094198058 4.0411786128188378 0 0 0 0.89939972223126508 23 4118 24 5367
67945 -2.6995641196496969 1.8691154141970094 6.1734920363310799 0 0 0 2.6842134347793758 23 4407 24 4970
67946 -2.6779133846378751 1.8939463166564074 6.1881876399251334 0 0 0 2.4460956129201485 23 4408 24 4973 25 2738
67947 -0.30462733302640638 1.6572861041074958 4.4470858057956546 0 0 0 2.6184595096196279 23 4431 24 7487
67948 -0.31375103931217679 1.7207577990593526 4.4732229232031919 0 0 0 2.6034030399463668 23 4438 24 6239
67951 -2.9088703844526558 2.3249231452850303 5.80639449215154 0 0 0 1.7451574535959185 23 4573 24 5135
67952 -2.5315307714977289 2.4256419055193947 5.6873966417151101 0 0 0 2.1259068939000354 23 4594 24 4499
67954 -2.8779966778536159 2.3691090814975526 5.6373939630397683 0 0 0 1.4843270702831917 23 4656 24 4726
67958 -2.6503187727116688 2.1219237048692237 7.1374422818302348 0 0 0 1.788720467831971 23 4814 24 4931
67961 -3.0131583785785052 1.9500331493438434 6.5778227189398821 0 0 0 2.2379742875682505 23 4899 24 7055
67962 -1.1776619314065431 1.562399356051918 4.6279120491863628 0 0 0 2.2501373734303569 23 4988 24 4694
67967 1.6345347780724457 2.4536899086039412 4.0092705251010861 0 0 0 2.9866611052075758 23 5096 24 5835
67972 -2.0277237691878152 1.34438548911553 4.1767127354757791 0 0 0 1.4343885071913038 23 5299 24 5684
67973 -3.1130228780739655 2.2964361599299448 5.793069581728755 0 0 0 1.6328747618890718 23 5306 24 7218
67976 -3.2400758034931276 2.2423504338461373 5.7074321553638008 0 0 0 1.25852218418152 23 5359 24 7221
67978 -2.2366725184816283 -0.10459607393379147 8.9499815901800748 0 0 0 0.033944699246916392 23 5376 24 6367
67984 -2.1773932532987805 1.4991062465025018 7.9699827867544837 0 0 0 0.19952506075551299 23 5454 24 5524
67988 -2.4971940499943481 2.4970153515407407 5.1520215689322875 0 0 0 0.31698644469464465 23 5666 24 5722
67989 -2.8703715341108342 2.5916777819269625 5.1493674273577161 0 0 0 1.1015646743236234 23 5717 24 5726 26 6143
67991 -3.0163216759143214 2.8875461460465424 4.5072160510247592 0 0 0 0.77131623343362443 23 5891 24 5054
67993 1.1491531371438839 3.7253351344007393 3.1600386079983962 0 0 0 0.82077050026221499 23 6164 24 6054
67996 -0.65319756263910245 -1.8433278110628903 2.1141096388697949 0 0 0 0.81614198397805371 23 6312 24 4109
68000 -2.0681219688954298 0.47469511428011157 8.9942287439820952 0 0 0 0.57818206026447805 23 6363 24 4079
68001 -0.80795970344763646 -0.71067005491206814 3.4307314342198989 0 0 0 2.515519369153445 23 6371 24 6693
68002 -2.9554279011841573 0.67614562941300316 8.0753481762523993 0 0 0 2.6447517233543349 23 6381 24 6561
68005 -2.2542646597185976 1.3424054548521547 7.5785833653164882 0 0 0 0.73456206519899703 23 6446 24 6654
68007 1.0905409547102887 1.0826715303384156 4.1197578382697309 0 0 0 2.7162842671448253 23 6607 24 7451
68011 -2.5687620233208208 1.9778920469435892 6.5496033768421071 0 0 0 2.4665466518388262 23 6815 24 7065
68015 -0.90144780551603987 1.2004534416333024 4.2475727188695487 0 0 0 1.5199613699260679 23 6897 24 7410
68024 -3.1100602968743862 2.71665103814053 4.6506180301198006 0 0 0 1.294900600655662 23 7494 24 6653
68025 -3.0454117700029619 2.4022252620484417 5.5755832384296395 0 0 0 1.4590277521245945 23 7503 24 7394 26 6213
68026 -0.62607183743326189 2.3532135892055726 4.3419606402758921 0 0 0 2.4130584196636651 23 7509 24 6723
68027 -2.7798726547428703 2.4803429788843112 5.3721527623667127 0 0 0 0.69891158535929854 23 7569 24 7468
69414 -2.4894541042669918 1.8978638953763372 6.6037205008436546 108 89 57 1.5034403587828367 37 6185 38 4475 42 8232 46 7185
68032 -0.6245856050204609 0.57388053118710114 4.0424806720356772 0 0 0 1.8703005455814652 25 87 43 54
68037 -0.44011510169538537 -1.9406324323814819 5.526217843505532 0 0 0 2.9503374971002896 25 527 43 357
69413 -1.4119585817452152 1.6900027441251857 6.8373383971945518 93 72 41 0.29077324970066393 37 3520 38 4469
68039 -0.3922120962300894 -0.19801457746202691 3.3947681300669856 0 0 0 1.5959937117069496 25 620 43 294 45 440 41 312
68045 -0.26161445169767267 -0.22849120577924745 3.3540000175789983 0 0 0 0.96748503735756064 25 1010 43 232 45 269
68046 -0.31888479312303603 -0.20232827046519131 3.3911553483176053 0 0 0 0.69146775726863208 43 614 14 2785
70443 -1.2060127768793596 2.2967662475635491 5.9109845558227381 76 80 73 0.62734239354111476 38 6053 42 6455 46 7176
68053 -0.51789489162695668 0.48254369262533259 7.4933508781887079 0 0 0 2.5696091246927422 25 1608 43 2398
68068 1.3754451101578613 2.9771525293374483 4.5906566363773917 0 0 0 2.1860254100035692 25 2216 43 1007 41 959
68070 0.37308812298413324 -0.030070900893060658 9.1405583769870677 0 0 0 1.5592932739504266 25 2511 43 1087
68074 -0.26133602560039421 -0.20823951054105519 3.3596688748432899 0 0 0 2.2024185874328346 25 2850 43 1066 45 1091 41 1039
68081 -0.40904484540398289 -1.4830666719779444 5.7104757572553444 0 0 0 2.1417432169206227 25 3337 43 1390
68084 3.5538264601296001 1.9068272719102231 6.1405016093887363 0 0 0 0.23227924649812626 25 3740 43 1635
68085 -0.26355535793108165 -2.2449774632490085 8.0831030400117871 0 0 0 1.5397084157247607 25 3783 43 1391 16 4134
68086 -1.0088380584938237 -0.9745866691330406 4.7220230957868559 0 0 0 0.59265370644579674 25 3952 43 2230
68087 0.3114409494137117 0.34206875706776035 9.2354814904849309 0 0 0 1.0397068980230537 25 3977 43 1189 23 4022
68090 4.2440060632591177 1.2494275412858336 6.7111905110059427 0 0 0 2.4027181489046843 25 4002 43 880
68093 1.5905511578577853 2.9209019966995391 4.4414078054332649 0 0 0 0.45498007455781442 25 4650 43 1348
68096 -1.2250873680894623 0.053185987194965319 2.4290994343667127 0 0 0 0.20695842564185973 25 4923 43 522
68097 1.1778299269072439 3.0425836612234858 4.4812834117711509 0 0 0 1.004975042573425 25 4927 43 1352
68101 -0.94129635794978039 -1.8919502453420574 8.212854383433962 0 0 0 1.4371731383826445 25 5013 43 2133
68104 0.23735792489263055 0.29866354233628228 9.3520015426792309 0 0 0 0.42909000302013739 25 5190 21 2986
68111 0.9052425439068662 1.4843701940567864 4.1172254483611521 0 0 0 0.15536770307924713 25 5744 43 1288
68114 1.7517201820734745 7.3122439303457298 12.73555167124994 0 0 0 1.0235520400694651 25 5855 43 547
68116 -0.79905644462785574 -2.5022662142645782 8.006770871386454 0 0 0 2.5687614793101541 25 6160 43 2204
68119 0.37975418933756538 0.32228763931548066 9.226363178653969 0 0 0 0.51888991093898373 25 6293 43 2184
68120 0.29912967317832845 0.32586072743506667 9.2380227708299341 0 0 0 0.32767010214270365 25 6295 43 2420
68121 -0.081235932588443929 0.30211921309464146 9.3047855440432023 0 0 0 1.654938980051476 25 6303 43 1852
68123 3.0252060362699136 4.7288341976323807 16.880684113869975 0 0 0 1.7549495575139402 25 6444 43 1500
68125 -0.73461263173305369 -1.5745738066780979 8.370231086299599 0 0 0 1.7459861831429198 25 6477 43 2244
68132 0.93335413947304813 1.4522980240802761 4.135295910878857 0 0 0 1.1660521645642392 25 6846 43 1244
68135 -0.3777216484711875 1.1839224194162903 2.8355744506449909 0 0 0 0.87072698502873713 25 7247 43 352
69838 -0.69607910327348199 4.2670365288334615 2.1195854001735372 117 115 92 0.91958487808894773 37 605 42 814 46 1001
68140 -0.59810487838353543 0.45269782813893755 4.2742198264099684 0 0 0 0.94730965551034352 25 251 45 305
68148 -0.75519583998708972 -0.78940956177385091 3.355006023151843 0 0 0 2.3993097370418734 25 991 45 839
68152 -0.66150266074659403 0.51913169880692844 4.1351996776696245 0 0 0 0.13364541126766588 25 1447 45 1314
68155 -0.40775875879455875 -0.23653541104845147 3.4070047064643205 0 0 0 2.4376602588872514 25 2003 45 1464
68162 -0.24934397655097329 1.1978515557195741 4.1049980232971475 0 0 0 1.109108570836689 25 3490 45 3116
68174 -0.4031741476071784 -0.24022444985598276 3.3981510912778417 0 0 0 1.0373692296388015 25 5346 45 1463
68177 0.39594371934847139 1.3072291819622217 4.1980718026444386 0 0 0 2.4193372322100117 25 5758 45 1318
68182 -1.376093670751029 0.51957540149617298 4.0480725762436967 0 0 0 2.1842885398812086 25 6073 45 3178
68190 -0.73805569661043258 -0.4927807858435676 3.2803212086858897 0 0 0 0.84544650911856034 25 6501 45 1984
68196 0.16871426231794057 1.4274014544617866 3.8031251551369092 0 0 0 0.50848577217658519 25 7041 45 941
68203 -0.41248521925063092 0.74817875170885706 3.9453985270845977 0 0 0 0.054837422170308153 40 109 44 132
68205 -1.1541451863381995 2.055778370541002 4.2631723516041351 0 0 0 1.9191442891958264 40 136 44 402 20 1983
68206 -0.3105931499356735 -0.35957346882158431 3.3861325276298584 0 0 0 0.7838059540835991 40 160 44 155
68209 -0.64341808866809169 -0.77920881729250691 3.0639641804736937 0 0 0 2.3901243361263314 40 229 44 95
68213 0.1158815238690054 -0.7726513861580423 3.4585593439097533 0 0 0 1.7109707956417444 40 365 44 3906
68214 -0.337032197650182 2.5228868370890756 4.5980782554558415 0 0 0 1.2613179131474379 44 338 20 661
68229 -2.3433783532932293 3.1684361498781448 4.0887201073258135 0 0 0 2.2644921250954169 40 991 44 649
68230 -2.9318283575212001 3.0191663665909014 4.2439271820556499 0 0 0 1.1329062923037769 40 1049 44 630
68232 -3.0312796697427333 2.9731382456520246 4.3200113736991543 0 0 0 0.8493116453532783 40 1056 44 629
68237 -0.30971417983473409 -0.58317733784630366 3.2157590060229926 0 0 0 1.4928407091410167 40 1220 44 1620
68242 -0.6895917445953299 0.43946296089668713 3.722009529021328 0 0 0 2.7399419150319968 40 1319 44 1508
68251 -1.6793216076086688 3.5059166216129016 4.3371210871453298 0 0 0 0.5708993602291712 40 1538 44 811
68253 -0.11742185807217569 0.64465194328848974 3.7817029336033299 0 0 0 1.8691282376885963 40 1669 44 1358
68256 -0.33118421831323902 0.82912876528262569 3.9365493590562974 0 0 0 1.5225989786491969 40 1685 44 982
68260 0.43630088395139477 1.7294774062630747 4.0095861697864299 0 0 0 0.78054868999608007 40 1822 44 1371
68262 -0.34378636315926514 -0.95845260227988294 3.3131953844152724 0 0 0 1.2115450864532082 40 2046 44 1364
68263 -0.67148961953656638 -0.71192847242161095 3.0803706398529318 0 0 0 2.5894381774320312 40 2048 44 2030
68264 -0.50230910906313209 -0.62100735483652192 3.0776965745487281 0 0 0 1.3043961561996487 44 1635 15 4415
68268 -0.36139134574753595 0.41901389857741816 3.6289438944660897 0 0 0 0.81065833845352508 40 2278 44 1501
68271 -0.13393599815257604 0.66319784731191034 3.8008365815524079 0 0 0 0.83264690164208721 40 2346 44 1712
68274 -0.98248176453420788 2.9071366936451533 4.1141548758375324 0 0 0 1.94069171124136 40 2603 44 1692
68276 -0.38259937615618272 -0.29372026090207803 3.4194230488957196 0 0 0 0.45661837421491608 40 2943 44 3711
68304 -0.45090095368912286 0.82203094801654375 4.0387696130657424 0 0 0 1.878980171017802 40 3704 44 1717
68312 -0.34905225622139902 -0.18462031131838563 2.9387248267662573 0 0 0 2.6507416884117219 40 4251 44 3692
68317 -1.2018439347686574 -0.19502639227210533 3.5426715614499149 0 0 0 2.7398577253721017 40 4356 44 2266
68322 -1.4685795843817093 1.0177827582781684 4.5265552541676346 0 0 0 0.76784563476111023 40 4389 44 1774
68349 -0.6082158152358218 0.59878319163721039 3.9740364503793821 79 110 101 1.8692806243679518 18 6536 4 789 14 2704 25 2093 41 558 43 679
68351 -0.29684098899081957 -0.20313818131379077 3.3778071204241793 106 135 144 1.6875576995987303 15 512 16 650 3 481 14 657 17 424 27 615 18 1243 40 289 29 450 44 374 10 439
68354 -0.38994734465593456 0.72022525468881415 3.8756959695283797 54 72 74 1.6619007516153756 15 4781 16 3833 9 2364 11 5991 19 6818 2 2505 13 1650 10 1617 4 793 3 2076 5 1898
68356 -0.42624032009565282 0.4893840498004749 3.6794572577934361 71 107 112 2.2210582718121952 11 5908 16 5106 8 9237 15 4693 9 2297 2 2424 13 2232 19 7849 18 7839 14 3344
68357 0.4819343749609073 1.5040588844629712 7.283375643894594 150 171 166 2.0690491169646856 21 34 32 29 33 33 35 27 34 31
68359 -0.37189125429155406 -0.050506126653687429 3.3238129750513248 30 37 40 1.8592565423646963 16 1197 29 761 40 857 19 3641 18 3530 17 1217
68360 2.194695043974487 0.17450747009594822 8.9268433830044298 47 55 51 1.3901809431973067 25 3925 15 3939 2 1763
68363 -0.65534202382470819 0.56001475760616748 4.0188957842382491 119 155 156 1.9545249522572472 25 2083 45 1028 14 3370 41 1095 43 860
68365 0.54812185466548002 0.21859050341868508 9.2288456440712778 0 0 0 0.99041388355845106 23 817 24 852 25 868 45 468
68368 -1.7290051629883347 3.1953132898764607 4.1889144687200028 182 170 129 1.7209198263608703 18 5334 11 3143 40 1933 9 751 24 2378 27 1180 21 1926 32 2166 6 2022 15 3475 26 882 13 1936 5 1725
68369 -1.897704502458375 0.10436777215512938 9.1349534167913475 0 0 0 2.1439830699800444 2 1207 10 991 13 1178 1 1296 11 3577
68370 -2.6344767696973004 0.35776291243451708 8.4533051119941529 179 210 220 1.5365025284094891 2 3513 13 2588 10 3546 22 4447 32 4791 16 3804 26 6951 15 6572
68371 0.38660660705466415 1.300627252564158 4.2719271657922757 118 136 122 1.8848312339162938 19 6006 3 801 5 1149 9 2444 2 1122
